ncols        166
nrows        31
xllcorner    450247
yllcorner    38959
cellsize     5
NODATA_value  -9999
1167.5428466796875 1167.6334228515625 1167.629638671875 1167.6248779296875 1167.5596923828125 1167.274658203125 1166.9921875 1166.6212158203125 1166.5601806640625 1166.6934814453125 1166.712158203125 1166.6490478515625 1166.64453125 1166.72607421875 1166.7496337890625 1166.9482421875 1167.1004638671875 1166.8414306640625 1166.49462890625 1166.3121337890625 1166.2938232421875 1166.35009765625 1166.4300537109375 1166.3837890625 1166.55224609375 1167.677978515625 1167.83544921875 1167.1409912109375 1166.8800048828125 1166.6175537109375 1166.4793701171875 1166.51416015625 1166.49072265625 1166.503662109375 1167.39599609375 1167.158935546875 1167.2789306640625 1167.08447265625 1167.2330322265625 1167.0948486328125 1166.8585205078125 1166.5614013671875 1166.7791748046875 1166.5870361328125 1167.09375 1167.092041015625 1167.2220458984375 1167.0133056640625 1167.2169189453125 1166.8909912109375 1166.80419921875 1166.8118896484375 1166.744873046875 1166.82080078125 1166.843017578125 1166.8206787109375 1166.9085693359375 1167.16943359375 1167.1353759765625 1167.2137451171875 1167.53125 1167.4625244140625 1167.5491943359375 1167.229248046875 1167.69384765625 1167.5966796875 1167.529296875 1167.18798828125 1167.2210693359375 1167.7130126953125 1167.5555419921875 1167.5740966796875 1167.74609375 1167.8389892578125 1167.550537109375 1167.5128173828125 1167.5228271484375 1167.5684814453125 1167.57861328125 1167.6517333984375 1167.5374755859375 1167.782470703125 1167.59619140625 1167.5968017578125 1167.719482421875 1167.977783203125 1167.768798828125 1167.6412353515625 1167.6455078125 1167.7894287109375 1167.773193359375 1167.706787109375 1168.2071533203125 1168.0096435546875 1167.796142578125 1167.759521484375 1167.7637939453125 1167.66796875 1167.8394775390625 1167.6981201171875 1167.521728515625 1167.529052734375 1167.607421875 1167.657470703125 1167.46240234375 1167.4830322265625 1167.4581298828125 1167.3953857421875 1167.3900146484375 1167.4337158203125 1167.432373046875 1167.531494140625 1167.770263671875 1167.6676025390625 1167.622314453125 1167.670166015625 1167.7757568359375 1167.5186767578125 1167.3892822265625 1167.166748046875 1167.4937744140625 1167.5804443359375 1167.6651611328125 1167.8114013671875 1167.535888671875 1167.2537841796875 1167.2403564453125 1167.3209228515625 1167.35205078125 1167.3956298828125 1167.3526611328125 1168.40234375 1168.5040283203125 1167.9168701171875 1167.545166015625 1167.5865478515625 1167.4661865234375 1167.3980712890625 1167.424072265625 1167.2039794921875 1167.1998291015625 1167.2298583984375 1167.658447265625 1167.5345458984375 1167.677001953125 1167.537353515625 1167.8726806640625 1167.6717529296875 1167.7431640625 1167.6478271484375 1167.670654296875 1167.62744140625 1167.5443115234375 1167.2510986328125 1167.3114013671875 1167.4642333984375 1167.336669921875 1167.2205810546875 1167.5137939453125 1168.170654296875 1166.7222900390625 1167.946044921875 1167.68408203125 1167.62890625 1167.37646484375 1168.238525390625
1167.5006103515625 1167.1534423828125 1167.1031494140625 1167.379638671875 1167.689697265625 1167.3714599609375 1167.009033203125 1166.5887451171875 1166.599853515625 1166.705322265625 1166.5531005859375 1166.609375 1166.584716796875 1166.55322265625 1166.6256103515625 1166.8583984375 1166.9630126953125 1166.8353271484375 1166.64892578125 1166.4088134765625 1166.3629150390625 1166.4178466796875 1166.3426513671875 1166.4630126953125 1166.5333251953125 1166.61669921875 1166.52880859375 1166.50732421875 1166.9359130859375 1166.415771484375 1166.427001953125 1166.510498046875 1166.5367431640625 1166.4752197265625 1167.0028076171875 1167.132080078125 1167.20458984375 1167.2664794921875 1167.249755859375 1167.26025390625 1167.2279052734375 1166.5408935546875 1166.4554443359375 1166.5977783203125 1166.6090087890625 1166.6986083984375 1166.879638671875 1166.8778076171875 1166.5914306640625 1166.6640625 1166.6734619140625 1166.7615966796875 1166.971923828125 1166.8592529296875 1166.87060546875 1166.9376220703125 1166.9810791015625 1167.1231689453125 1167.053466796875 1167.135498046875 1167.156005859375 1167.0498046875 1166.99658203125 1167.1107177734375 1167.279052734375 1167.52734375 1167.3782958984375 1167.283935546875 1167.447998046875 1168.0528564453125 1167.963623046875 1167.7183837890625 1167.69873046875 1167.74755859375 1167.4266357421875 1167.6337890625 1167.6502685546875 1167.605712890625 1167.641357421875 1167.6383056640625 1167.4912109375 1167.3612060546875 1167.367919921875 1167.4844970703125 1167.4954833984375 1167.6109619140625 1167.912353515625 1167.9674072265625 1167.90576171875 1167.831787109375 1167.7611083984375 1167.5562744140625 1168.042236328125 1167.7332763671875 1167.64697265625 1167.708740234375 1167.7286376953125 1167.6982421875 1167.624267578125 1167.7349853515625 1167.69189453125 1167.4981689453125 1167.521484375 1167.432373046875 1167.40234375 1167.3363037109375 1167.7169189453125 1167.3203125 1167.2857666015625 1167.3514404296875 1167.4407958984375 1167.93212890625 1167.8599853515625 1167.435546875 1167.4669189453125 1167.3106689453125 1167.746826171875 1167.71044921875 1167.668701171875 1167.1934814453125 1167.48095703125 1167.61279296875 1167.9588623046875 1167.4649658203125 1167.2332763671875 1167.2039794921875 1167.2423095703125 1167.3365478515625 1167.2935791015625 1167.3963623046875 1167.542236328125 1168.244384765625 1168.47900390625 1167.921875 1167.6842041015625 1167.6298828125 1167.5625 1167.2550048828125 1167.2720947265625 1167.219482421875 1167.26416015625 1167.5618896484375 1167.5565185546875 1167.4434814453125 1167.7298583984375 1167.653076171875 1167.7322998046875 1167.6083984375 1167.6090087890625 1167.60888671875 1167.4927978515625 1167.44677734375 1167.186279296875 1167.15625 1167.1695556640625 1167.125732421875 1167.1387939453125 1167.18359375 1167.3817138671875 1167.501220703125 1167.6318359375 1167.7835693359375 1167.761474609375 1167.7615966796875 1168.18212890625 1168.26513671875
1167.3939208984375 1167.2412109375 1167.1759033203125 1167.0679931640625 1166.9912109375 1166.7724609375 1166.6875 1166.5467529296875 1166.8203125 1166.879150390625 1166.7386474609375 1166.459228515625 1166.4598388671875 1166.406494140625 1166.471435546875 1166.7071533203125 1166.5704345703125 1166.4918212890625 1166.37109375 1166.3966064453125 1166.46435546875 1166.39453125 1166.4176025390625 1166.4005126953125 1166.537841796875 1166.5506591796875 1166.4268798828125 1166.899658203125 1166.9744873046875 1166.704833984375 1166.45751953125 1166.5235595703125 1166.541748046875 1166.50048828125 1166.8740234375 1167.306396484375 1167.3106689453125 1167.2896728515625 1167.2840576171875 1167.3409423828125 1167.3270263671875 1166.49072265625 1166.479736328125 1166.6092529296875 1166.6365966796875 1166.69189453125 1166.5306396484375 1166.7845458984375 1166.656005859375 1166.708740234375 1166.826416015625 1166.8287353515625 1166.7611083984375 1166.792236328125 1166.7928466796875 1166.7769775390625 1167.3958740234375 1167.361572265625 1167.2576904296875 1167.080810546875 1167.0517578125 1167.1781005859375 1167.031005859375 1167.10302734375 1167.24951171875 1167.443115234375 1167.3419189453125 1167.291015625 1167.4351806640625 1167.57958984375 1167.688232421875 1167.7100830078125 1167.599853515625 1167.70166015625 1167.4759521484375 1167.6517333984375 1167.530517578125 1167.6524658203125 1167.5853271484375 1167.5936279296875 1167.5897216796875 1167.4615478515625 1167.30615234375 1167.53173828125 1167.518798828125 1167.73388671875 1167.969482421875 1167.87548828125 1167.8497314453125 1167.8231201171875 1167.8125 1167.4967041015625 1167.8414306640625 1167.526123046875 1167.585205078125 1167.7462158203125 1167.8038330078125 1167.8048095703125 1167.553466796875 1167.6820068359375 1167.7900390625 1167.4566650390625 1167.574951171875 1167.4246826171875 1167.3590087890625 1167.24609375 1167.4041748046875 1167.3216552734375 1167.2166748046875 1167.262939453125 1167.3199462890625 1167.6663818359375 1167.685791015625 1167.2740478515625 1167.29345703125 1167.6488037109375 1167.6358642578125 1167.7581787109375 1167.45703125 1167.3262939453125 1167.1973876953125 1167.2437744140625 1167.35693359375 1167.1953125 1167.1634521484375 1167.1968994140625 1167.204345703125 1167.3624267578125 1167.3482666015625 1167.3720703125 1167.4111328125 1168.042724609375 1168.2772216796875 1167.9727783203125 1167.587158203125 1167.395263671875 1167.3831787109375 1167.32373046875 1167.235595703125 1167.2391357421875 1167.41455078125 1167.4844970703125 1167.667236328125 1167.3985595703125 1167.4434814453125 1167.596923828125 1167.541259765625 1167.4503173828125 1167.486328125 1167.4124755859375 1167.4306640625 1167.5595703125 1167.395263671875 1167.272705078125 1167.1199951171875 1167.0875244140625 1167.0960693359375 1167.2601318359375 1167.5345458984375 1167.1837158203125 1167.93310546875 1167.661376953125 1167.669677734375 1167.735107421875 1167.83984375 1168.6416015625
1167.4356689453125 1166.92919921875 1166.781982421875 1166.8197021484375 1166.876708984375 1166.7718505859375 1166.68408203125 1166.4884033203125 1166.891357421875 1166.912841796875 1166.8756103515625 1166.4384765625 1166.360595703125 1166.3668212890625 1166.2896728515625 1166.4189453125 1166.4166259765625 1166.3994140625 1166.3443603515625 1166.33056640625 1166.3546142578125 1166.391845703125 1166.37109375 1166.3653564453125 1166.41162109375 1166.61328125 1166.7501220703125 1167.1361083984375 1166.9417724609375 1166.8709716796875 1166.5908203125 1166.5601806640625 1166.635009765625 1166.6463623046875 1166.920654296875 1167.5953369140625 1167.54736328125 1167.1661376953125 1166.9781494140625 1166.9085693359375 1166.914794921875 1166.440673828125 1166.4146728515625 1166.3818359375 1166.38037109375 1166.4185791015625 1166.5247802734375 1166.5684814453125 1166.6273193359375 1166.7955322265625 1166.8760986328125 1166.73486328125 1166.8458251953125 1166.7987060546875 1166.6309814453125 1166.6494140625 1166.96484375 1166.71240234375 1166.6993408203125 1166.83984375 1166.9208984375 1166.973876953125 1167.1907958984375 1167.6357421875 1167.5487060546875 1167.4854736328125 1167.3134765625 1167.3017578125 1167.2305908203125 1166.94140625 1167.1104736328125 1167.2850341796875 1167.3651123046875 1167.6483154296875 1167.3984375 1167.559326171875 1167.57666015625 1167.5850830078125 1167.6824951171875 1167.5625 1167.52099609375 1167.4520263671875 1167.3564453125 1167.612060546875 1167.625 1167.3751220703125 1167.7734375 1167.8555908203125 1167.772705078125 1167.722412109375 1167.7052001953125 1167.51220703125 1167.6085205078125 1167.678955078125 1167.7615966796875 1167.767822265625 1167.7972412109375 1167.7877197265625 1167.6331787109375 1167.662353515625 1168.2222900390625 1167.548583984375 1167.5128173828125 1167.276611328125 1167.37939453125 1167.4447021484375 1167.5152587890625 1167.3482666015625 1167.4041748046875 1167.1859130859375 1167.23779296875 1167.394775390625 1167.2301025390625 1167.20654296875 1167.137451171875 1167.450927734375 1167.798095703125 1167.4688720703125 1167.430419921875 1167.259033203125 1167.0604248046875 1167.197509765625 1167.1805419921875 1167.2669677734375 1167.177490234375 1167.1795654296875 1167.2220458984375 1167.404541015625 1167.39501953125 1167.3848876953125 1167.51953125 1167.5322265625 1167.88525390625 1167.8975830078125 1167.8218994140625 1167.6690673828125 1167.77734375 1167.6142578125 1167.6109619140625 1168.113525390625 1167.9581298828125 1167.3526611328125 1167.3182373046875 1167.3841552734375 1167.459716796875 1167.4949951171875 1167.4033203125 1167.044921875 1167.018310546875 1167.005615234375 1167.3743896484375 1167.776123046875 1167.53564453125 1167.1600341796875 1166.9415283203125 1167.00390625 1167.114501953125 1167.2044677734375 1167.5501708984375 1166.779541015625 1168.0374755859375 1167.8140869140625 1167.717041015625 1167.7137451171875 1167.7208251953125 1168.4449462890625
1167.4580078125 1167.4024658203125 1167.5760498046875 1166.9476318359375 1167.0565185546875 1166.76220703125 1166.560791015625 1166.4454345703125 1166.8448486328125 1166.7288818359375 1166.6256103515625 1166.32763671875 1166.3265380859375 1166.4080810546875 1166.32470703125 1166.4241943359375 1166.3922119140625 1166.3656005859375 1166.40283203125 1166.381103515625 1166.342529296875 1166.3699951171875 1166.3494873046875 1166.3568115234375 1166.3963623046875 1166.4459228515625 1166.63330078125 1167.01708984375 1166.8829345703125 1166.81591796875 1166.740966796875 1166.6812744140625 1166.592529296875 1166.6055908203125 1166.87548828125 1167.299560546875 1167.2384033203125 1167.2462158203125 1166.82275390625 1166.7987060546875 1166.8310546875 1166.3087158203125 1166.3638916015625 1166.356201171875 1166.386474609375 1166.396240234375 1166.57421875 1166.4097900390625 1166.4923095703125 1166.5631103515625 1166.508544921875 1166.677490234375 1166.724853515625 1166.6981201171875 1166.554443359375 1166.5479736328125 1166.7137451171875 1166.734375 1166.6766357421875 1166.8262939453125 1166.8392333984375 1167.2523193359375 1167.190185546875 1167.6195068359375 1167.4818115234375 1167.481201171875 1167.2713623046875 1167.1021728515625 1167.1446533203125 1167.065673828125 1167.1876220703125 1167.2060546875 1167.3079833984375 1167.5863037109375 1167.4820556640625 1167.571533203125 1167.6419677734375 1167.586669921875 1167.6422119140625 1167.4891357421875 1167.4222412109375 1167.453125 1167.3951416015625 1167.484375 1167.595458984375 1167.47216796875 1167.700927734375 1167.7462158203125 1167.673095703125 1167.682373046875 1167.6868896484375 1167.5045166015625 1167.6356201171875 1167.69189453125 1167.7420654296875 1167.76708984375 1167.779541015625 1167.7490234375 1167.6373291015625 1167.505615234375 1167.5137939453125 1167.4796142578125 1167.678466796875 1167.361083984375 1167.3597412109375 1167.4576416015625 1167.46142578125 1167.447021484375 1167.18359375 1167.166748046875 1167.1817626953125 1167.2574462890625 1167.185791015625 1167.35400390625 1167.3218994140625 1167.477783203125 1167.4345703125 1167.242919921875 1167.3226318359375 1167.6253662109375 1166.9451904296875 1167.1998291015625 1167.181640625 1167.272705078125 1167.1807861328125 1167.26904296875 1167.2149658203125 1167.2779541015625 1167.4638671875 1167.7264404296875 1168.248779296875 1167.640869140625 1167.6507568359375 1167.8099365234375 1167.8302001953125 1167.8682861328125 1168.0953369140625 1167.7889404296875 1167.563232421875 1167.8875732421875 1167.9822998046875 1167.359375 1167.3538818359375 1167.421630859375 1167.462890625 1167.4056396484375 1167.2999267578125 1167.03466796875 1166.9879150390625 1167.028076171875 1167.5294189453125 1167.5771484375 1167.3656005859375 1167.146240234375 1167.0111083984375 1167.166259765625 1167.3270263671875 1167.3438720703125 1167.701904296875 1167.0445556640625 1167.897216796875 1167.8704833984375 1167.87255859375 1167.7901611328125 1167.6904296875 1167.7242431640625
1167.479736328125 1167.259033203125 1167.332763671875 1167.3861083984375 1167.2940673828125 1166.7919921875 1166.5013427734375 1166.4703369140625 1166.7783203125 1166.8717041015625 1166.561767578125 1166.4241943359375 1166.30419921875 1166.2774658203125 1166.4332275390625 1166.3603515625 1166.356689453125 1166.33447265625 1166.330810546875 1166.2911376953125 1166.3245849609375 1166.2835693359375 1166.325439453125 1166.3394775390625 1166.36181640625 1166.2841796875 1166.345947265625 1166.482666015625 1166.50439453125 1166.4527587890625 1167.017333984375 1166.8431396484375 1166.6053466796875 1166.7724609375 1166.99658203125 1166.755126953125 1166.9564208984375 1167.1768798828125 1166.9931640625 1166.84619140625 1166.79248046875 1166.28173828125 1166.369384765625 1166.3416748046875 1166.4481201171875 1166.586669921875 1166.447998046875 1166.3121337890625 1166.3367919921875 1166.4361572265625 1166.4534912109375 1166.713134765625 1166.6273193359375 1166.491943359375 1166.4783935546875 1166.450439453125 1166.4766845703125 1166.52001953125 1166.7724609375 1166.75634765625 1166.5859375 1167.007080078125 1167.1502685546875 1167.0654296875 1166.932861328125 1166.912841796875 1166.9293212890625 1167.109619140625 1167.098388671875 1167.292724609375 1167.61279296875 1167.7940673828125 1167.635986328125 1167.6129150390625 1167.3931884765625 1167.5806884765625 1167.5496826171875 1167.628173828125 1167.5938720703125 1167.4398193359375 1167.291748046875 1167.3275146484375 1167.2896728515625 1167.3277587890625 1167.5009765625 1167.415771484375 1167.7615966796875 1167.7340087890625 1167.694580078125 1167.65283203125 1167.7203369140625 1167.5028076171875 1167.5882568359375 1167.7340087890625 1167.7947998046875 1167.680908203125 1167.8016357421875 1167.7978515625 1167.73828125 1167.3739013671875 1167.56298828125 1167.4150390625 1167.4111328125 1167.3204345703125 1167.611083984375 1167.5096435546875 1167.4197998046875 1167.2462158203125 1167.28955078125 1167.439697265625 1167.236083984375 1167.3739013671875 1167.4884033203125 1167.407958984375 1167.3651123046875 1167.409912109375 1167.35009765625 1167.1685791015625 1167.181884765625 1167.5230712890625 1167.135009765625 1167.377685546875 1167.3018798828125 1167.53271484375 1167.736083984375 1167.511474609375 1167.24951171875 1167.30517578125 1167.69873046875 1169.41943359375 1169.628173828125 1168.45556640625 1167.92041015625 1167.8455810546875 1167.8101806640625 1167.779541015625 1167.783447265625 1167.8050537109375 1167.5228271484375 1167.831298828125 1167.90380859375 1167.477783203125 1167.3837890625 1167.40380859375 1167.3035888671875 1167.4820556640625 1167.7109375 1167.5029296875 1167.220458984375 1167.287841796875 1167.408935546875 1167.84716796875 1167.3895263671875 1167.3060302734375 1167.535888671875 1167.6143798828125 1167.58642578125 1167.3946533203125 1167.8543701171875 1167.530029296875 1167.844482421875 1167.7607421875 1167.70263671875 1167.6982421875 1167.7691650390625 1167.8330078125
1166.4805908203125 1167.14501953125 1167.395263671875 1167.451416015625 1167.2689208984375 1166.7305908203125 1166.486572265625 1166.4571533203125 1166.81884765625 1166.935791015625 1167.13232421875 1167.1451416015625 1166.5992431640625 1166.3883056640625 1166.4031982421875 1166.3818359375 1166.30126953125 1166.3323974609375 1166.331787109375 1166.3505859375 1166.30419921875 1166.306640625 1166.344970703125 1166.348876953125 1166.3895263671875 1166.2763671875 1166.379638671875 1166.3792724609375 1166.3388671875 1166.5728759765625 1167.11279296875 1166.586669921875 1166.4857177734375 1166.599853515625 1166.9698486328125 1166.967529296875 1166.7884521484375 1167.390625 1167.3863525390625 1167.29296875 1167.112548828125 1166.3212890625 1166.31396484375 1166.28271484375 1166.3037109375 1166.4378662109375 1166.424072265625 1166.427978515625 1166.3929443359375 1166.3692626953125 1166.4605712890625 1166.5867919921875 1166.5819091796875 1166.5001220703125 1166.4989013671875 1166.51171875 1166.6109619140625 1166.5853271484375 1166.6439208984375 1166.7327880859375 1166.6148681640625 1166.535888671875 1166.6942138671875 1166.756103515625 1167.0240478515625 1167.565673828125 1167.27392578125 1167.0714111328125 1167.2181396484375 1167.4407958984375 1167.7342529296875 1168.03125 1167.750732421875 1167.6160888671875 1167.36767578125 1167.4515380859375 1167.473388671875 1167.7181396484375 1167.5357666015625 1167.36376953125 1167.311279296875 1167.3292236328125 1167.2552490234375 1167.5357666015625 1167.59228515625 1167.62451171875 1167.64501953125 1167.7861328125 1167.64111328125 1167.7386474609375 1167.7603759765625 1167.46240234375 1167.5498046875 1167.7147216796875 1167.7623291015625 1167.643798828125 1167.757568359375 1167.832763671875 1167.809814453125 1167.3505859375 1167.261962890625 1167.6947021484375 1167.7550048828125 1167.5726318359375 1167.5792236328125 1167.5107421875 1167.55224609375 1167.334716796875 1167.3052978515625 1167.3834228515625 1167.37646484375 1167.3260498046875 1167.367431640625 1167.4619140625 1167.3416748046875 1167.355712890625 1167.3863525390625 1167.159423828125 1167.1650390625 1167.5379638671875 1167.3148193359375 1167.631591796875 1167.4766845703125 1167.6337890625 1167.705810546875 1167.291259765625 1167.71484375 1167.637939453125 1167.65283203125 1169.5220947265625 1169.5257568359375 1168.7896728515625 1167.46826171875 1167.47265625 1167.42138671875 1167.2950439453125 1167.4217529296875 1167.434326171875 1167.599365234375 1167.9642333984375 1167.9468994140625 1167.5396728515625 1167.422607421875 1167.3985595703125 1167.58154296875 1167.477294921875 1167.3909912109375 1167.4256591796875 1167.383056640625 1167.2442626953125 1167.3670654296875 1167.7791748046875 1168.04248046875 1167.4119873046875 1167.514404296875 1167.6763916015625 1168.0245361328125 1168.464111328125 1168.0157470703125 1167.738037109375 1167.7740478515625 1167.7550048828125 1167.6663818359375 1167.694580078125 1167.7593994140625 1167.615478515625
1166.2418212890625 1166.737060546875 1167.240478515625 1167.2171630859375 1167.1390380859375 1166.6429443359375 1166.4810791015625 1166.457763671875 1166.938232421875 1167.1260986328125 1167.163818359375 1167.267822265625 1167.0257568359375 1166.5545654296875 1166.578125 1166.28564453125 1166.331298828125 1166.3599853515625 1166.3677978515625 1166.347412109375 1166.3670654296875 1166.38671875 1166.33251953125 1166.41455078125 1166.4837646484375 1166.32373046875 1166.2802734375 1166.34423828125 1166.3626708984375 1166.333984375 1167.2320556640625 1166.4788818359375 1166.4849853515625 1166.6204833984375 1166.9271240234375 1166.9219970703125 1166.8841552734375 1167.4498291015625 1167.64404296875 1167.6707763671875 1167.1324462890625 1166.59423828125 1166.619873046875 1166.4007568359375 1166.4490966796875 1166.397705078125 1166.498779296875 1166.39404296875 1166.37548828125 1166.328125 1166.5048828125 1166.882080078125 1166.834716796875 1166.5986328125 1166.5372314453125 1166.5634765625 1166.58740234375 1166.734375 1166.841064453125 1166.6600341796875 1166.6951904296875 1166.7320556640625 1166.7874755859375 1166.8590087890625 1166.8699951171875 1167.2828369140625 1167.134521484375 1167.0740966796875 1167.2587890625 1167.2734375 1167.313720703125 1167.3861083984375 1167.3531494140625 1167.4786376953125 1167.455810546875 1167.7181396484375 1167.7626953125 1167.9490966796875 1168.02587890625 1168.08203125 1168.1060791015625 1167.555908203125 1167.5166015625 1167.4844970703125 1167.4237060546875 1167.5206298828125 1167.47216796875 1167.607666015625 1167.560791015625 1167.664306640625 1167.6927490234375 1167.5672607421875 1167.5335693359375 1167.5777587890625 1167.576416015625 1167.61376953125 1167.7144775390625 1167.8890380859375 1167.889892578125 1167.5267333984375 1167.3416748046875 1167.657958984375 1167.6260986328125 1167.5311279296875 1167.656494140625 1167.643798828125 1167.525146484375 1167.5537109375 1167.416259765625 1167.4471435546875 1167.5462646484375 1167.3148193359375 1167.2978515625 1167.3192138671875 1167.3668212890625 1167.376708984375 1167.3875732421875 1167.2491455078125 1167.2159423828125 1167.286376953125 1167.3773193359375 1167.5687255859375 1167.4476318359375 1167.561767578125 1167.5445556640625 1167.0609130859375 1167.4764404296875 1167.6116943359375 1167.5958251953125 1168.435302734375 1168.64453125 1168.2596435546875 1167.7501220703125 1167.610107421875 1167.6588134765625 1167.630615234375 1167.553466796875 1167.590087890625 1167.7767333984375 1167.73486328125 1167.5054931640625 1167.4677734375 1167.4942626953125 1167.6072998046875 1167.6373291015625 1167.2716064453125 1167.399169921875 1167.4505615234375 1167.4971923828125 1167.345458984375 1167.4176025390625 1167.5191650390625 1167.7137451171875 1167.4429931640625 1167.6143798828125 1167.738525390625 1168.0675048828125 1168.4981689453125 1167.3221435546875 1167.8599853515625 1167.78759765625 1167.7659912109375 1167.64599609375 1167.572021484375 1167.72802734375 1167.66162109375
1166.2520751953125 1166.550048828125 1166.87158203125 1167.1624755859375 1167.0938720703125 1166.5919189453125 1166.478515625 1166.590087890625 1167.1600341796875 1167.2188720703125 1167.2470703125 1167.219970703125 1167.0296630859375 1166.5721435546875 1166.459716796875 1166.5233154296875 1166.340576171875 1166.3380126953125 1166.3070068359375 1166.3385009765625 1166.4493408203125 1166.307861328125 1166.3358154296875 1166.4661865234375 1166.43310546875 1166.436767578125 1166.2861328125 1166.3409423828125 1166.3154296875 1166.3236083984375 1167.135986328125 1166.8536376953125 1166.6812744140625 1166.6763916015625 1166.9656982421875 1167.151123046875 1167.1707763671875 1167.4425048828125 1167.5291748046875 1167.44482421875 1166.9017333984375 1166.4749755859375 1166.398193359375 1166.3714599609375 1166.4423828125 1166.2901611328125 1166.5606689453125 1166.3818359375 1166.458251953125 1166.3101806640625 1166.4627685546875 1166.8719482421875 1166.921142578125 1166.5535888671875 1166.4561767578125 1166.407958984375 1166.4239501953125 1166.7020263671875 1166.7706298828125 1166.5863037109375 1166.640625 1166.75048828125 1166.8675537109375 1166.985595703125 1166.9423828125 1167.2314453125 1167.2142333984375 1167.09375 1167.1964111328125 1167.2451171875 1167.247802734375 1167.2467041015625 1167.2935791015625 1167.594970703125 1167.57470703125 1167.8062744140625 1167.825439453125 1167.8543701171875 1167.8568115234375 1167.867919921875 1167.932373046875 1167.8558349609375 1167.7054443359375 1167.5072021484375 1167.524658203125 1167.5948486328125 1167.4710693359375 1167.69970703125 1167.6265869140625 1167.6624755859375 1167.6845703125 1167.6514892578125 1167.5400390625 1167.6329345703125 1167.5670166015625 1167.6414794921875 1167.7110595703125 1167.9112548828125 1168.0625 1167.67333984375 1167.463134765625 1167.50830078125 1167.55029296875 1167.5230712890625 1167.6358642578125 1167.5943603515625 1167.597900390625 1167.3470458984375 1167.1510009765625 1167.2291259765625 1167.2388916015625 1167.397705078125 1167.3341064453125 1167.2977294921875 1167.40283203125 1167.375732421875 1167.373779296875 1167.5299072265625 1167.402099609375 1167.2318115234375 1167.306396484375 1167.4537353515625 1167.4346923828125 1167.442138671875 1167.6131591796875 1167.17236328125 1167.614501953125 1167.453857421875 1167.540771484375 1167.768798828125 1167.7010498046875 1167.8494873046875 1167.8626708984375 1167.3634033203125 1167.6416015625 1167.5540771484375 1167.49072265625 1167.74951171875 1168.0948486328125 1167.4854736328125 1167.4893798828125 1167.578125 1167.5634765625 1167.563720703125 1167.568603515625 1167.19580078125 1167.4002685546875 1167.4537353515625 1167.43798828125 1167.5128173828125 1167.4893798828125 1167.518798828125 1167.5823974609375 1167.509521484375 1167.51171875 1167.6923828125 1167.7745361328125 1168.21728515625 1166.81396484375 1167.8443603515625 1167.637451171875 1167.6612548828125 1167.767333984375 1167.6304931640625 1167.493408203125 1167.710693359375
1166.06298828125 1166.27294921875 1166.5810546875 1166.4476318359375 1166.6954345703125 1166.500244140625 1166.45458984375 1166.53173828125 1166.6954345703125 1166.8306884765625 1166.9163818359375 1166.8743896484375 1166.78173828125 1166.8470458984375 1166.9964599609375 1166.7734375 1166.3763427734375 1166.2821044921875 1166.4222412109375 1166.4111328125 1166.359619140625 1166.33447265625 1166.3248291015625 1166.4599609375 1166.44384765625 1166.3515625 1166.45751953125 1166.3560791015625 1166.2874755859375 1166.282470703125 1167.2047119140625 1167.3707275390625 1167.3505859375 1167.08740234375 1166.8739013671875 1167.0802001953125 1167.4029541015625 1167.3724365234375 1167.427001953125 1167.326416015625 1167.05859375 1166.3450927734375 1166.328857421875 1166.3785400390625 1166.375 1166.2388916015625 1166.2900390625 1166.2738037109375 1166.3394775390625 1166.2850341796875 1166.58544921875 1166.589111328125 1166.5003662109375 1166.4984130859375 1166.4139404296875 1166.742431640625 1166.6502685546875 1166.55810546875 1166.4888916015625 1166.5072021484375 1166.44970703125 1166.7041015625 1166.8345947265625 1166.9854736328125 1167.052734375 1167.385009765625 1167.404541015625 1167.224853515625 1167.248779296875 1167.28955078125 1167.3829345703125 1167.2318115234375 1167.24560546875 1167.382080078125 1167.6893310546875 1167.7691650390625 1167.7490234375 1167.6981201171875 1167.689208984375 1167.6600341796875 1167.6585693359375 1167.7618408203125 1167.68017578125 1167.473876953125 1167.510986328125 1167.48291015625 1167.3134765625 1167.90576171875 1167.8760986328125 1167.9324951171875 1167.9666748046875 1167.963623046875 1167.334716796875 1167.4744873046875 1167.431884765625 1167.7884521484375 1167.95556640625 1168.0467529296875 1168.0987548828125 1167.8525390625 1167.6468505859375 1167.3671875 1167.7008056640625 1167.7802734375 1167.7437744140625 1167.6485595703125 1167.6612548828125 1167.2037353515625 1167.1829833984375 1167.280517578125 1167.3896484375 1167.383544921875 1167.2872314453125 1167.2991943359375 1167.4390869140625 1167.4698486328125 1167.5657958984375 1167.9593505859375 1168.272705078125 1168.28759765625 1168.4901123046875 1167.209228515625 1167.61279296875 1167.692626953125 1167.5035400390625 1167.490478515625 1167.5523681640625 1167.521728515625 1167.477783203125 1167.71826171875 1167.6112060546875 1167.9197998046875 1167.8175048828125 1167.3599853515625 1167.68798828125 1167.619384765625 1167.876708984375 1167.858154296875 1167.5706787109375 1167.6573486328125 1167.540771484375 1167.9068603515625 1167.8629150390625 1167.549072265625 1167.5067138671875 1167.341552734375 1167.45361328125 1167.3807373046875 1167.459228515625 1167.3968505859375 1167.4287109375 1167.61962890625 1167.58203125 1167.541748046875 1167.629638671875 1167.742431640625 1167.79248046875 1168.044677734375 1166.693603515625 1167.88671875 1167.74609375 1167.674560546875 1167.717041015625 1167.6292724609375 1167.393310546875 1167.6207275390625
1166.044189453125 1166.2667236328125 1166.6728515625 1166.8692626953125 1167.06103515625 1166.539306640625 1166.4510498046875 1166.6060791015625 1166.6737060546875 1166.9708251953125 1167.14208984375 1166.7822265625 1166.82861328125 1167.0001220703125 1167.1812744140625 1166.4072265625 1166.2977294921875 1166.3734130859375 1166.2705078125 1166.3018798828125 1166.3701171875 1166.44775390625 1166.6461181640625 1166.5040283203125 1166.390625 1166.413330078125 1166.44140625 1166.3125 1166.281494140625 1166.29638671875 1167.311767578125 1167.453369140625 1167.4918212890625 1167.3734130859375 1167.683837890625 1167.3917236328125 1167.23486328125 1167.395751953125 1167.44873046875 1167.4163818359375 1166.820068359375 1166.33740234375 1166.349853515625 1166.392822265625 1166.4290771484375 1166.2513427734375 1166.36279296875 1166.375732421875 1166.4658203125 1166.28076171875 1166.4671630859375 1166.5196533203125 1166.5595703125 1166.6590576171875 1166.633544921875 1166.6976318359375 1166.5528564453125 1166.613525390625 1166.612548828125 1166.595947265625 1166.35107421875 1166.506591796875 1166.9866943359375 1166.9910888671875 1166.9576416015625 1167.33251953125 1167.4031982421875 1167.2755126953125 1167.435791015625 1167.2322998046875 1167.2349853515625 1167.184326171875 1167.17626953125 1167.2969970703125 1167.64111328125 1167.824951171875 1167.8319091796875 1167.829833984375 1167.82373046875 1167.8228759765625 1167.765625 1167.65234375 1167.501220703125 1167.44970703125 1167.482666015625 1167.518310546875 1167.24609375 1167.8421630859375 1168.03076171875 1167.991455078125 1167.9649658203125 1167.8822021484375 1167.44921875 1167.518310546875 1167.658447265625 1167.803955078125 1167.9432373046875 1168.0238037109375 1168.031005859375 1168.0201416015625 1167.9122314453125 1167.465576171875 1167.346923828125 1167.6114501953125 1167.64404296875 1167.626220703125 1167.582763671875 1167.1876220703125 1167.31884765625 1167.232666015625 1167.138671875 1167.0418701171875 1167.2584228515625 1167.5277099609375 1167.65087890625 1167.5980224609375 1167.7890625 1168.36669921875 1168.7279052734375 1168.658447265625 1168.46728515625 1167.0849609375 1167.711669921875 1167.6470947265625 1167.3033447265625 1167.07177734375 1166.8345947265625 1167.3214111328125 1167.5252685546875 1167.7880859375 1167.5496826171875 1167.155517578125 1167.1832275390625 1167.4951171875 1167.496826171875 1167.7535400390625 1168.5089111328125 1167.9263916015625 1167.7540283203125 1167.76123046875 1167.7431640625 1167.739501953125 1167.7952880859375 1167.53564453125 1167.4798583984375 1167.449951171875 1167.489501953125 1167.2978515625 1167.438232421875 1167.359619140625 1167.3642578125 1167.4490966796875 1167.512939453125 1167.526123046875 1167.64111328125 1167.7193603515625 1167.7740478515625 1167.862060546875 1167.00341796875 1167.9189453125 1167.653076171875 1167.648681640625 1167.7596435546875 1167.6326904296875 1167.796142578125 1167.6954345703125
1166.0478515625 1166.322509765625 1166.39794921875 1166.641357421875 1166.9486083984375 1166.4403076171875 1166.431396484375 1166.5843505859375 1166.69384765625 1166.9586181640625 1167.076904296875 1167.20263671875 1167.1734619140625 1167.1763916015625 1167.0316162109375 1166.497314453125 1166.238525390625 1166.446533203125 1166.286865234375 1166.3214111328125 1166.5748291015625 1166.616455078125 1166.5509033203125 1166.6234130859375 1166.559326171875 1166.485107421875 1166.338623046875 1166.2823486328125 1166.27685546875 1166.359130859375 1167.2822265625 1167.352294921875 1167.4273681640625 1167.420654296875 1167.700439453125 1167.5447998046875 1167.2520751953125 1167.1634521484375 1167.419189453125 1167.5450439453125 1166.9306640625 1166.29296875 1166.37060546875 1166.5010986328125 1166.5679931640625 1166.3619384765625 1166.2734375 1166.3260498046875 1166.2984619140625 1166.284423828125 1166.59814453125 1166.4259033203125 1166.4307861328125 1166.443115234375 1166.4786376953125 1166.58447265625 1166.706298828125 1166.9197998046875 1166.817138671875 1166.8096923828125 1166.557861328125 1166.592041015625 1166.673583984375 1166.994873046875 1167.1849365234375 1167.2425537109375 1167.336669921875 1167.3887939453125 1167.6220703125 1167.7203369140625 1167.443115234375 1167.112060546875 1167.01025390625 1167.6195068359375 1167.5128173828125 1167.5042724609375 1167.5281982421875 1167.5977783203125 1167.6600341796875 1167.6253662109375 1167.6763916015625 1167.492919921875 1167.662841796875 1167.4783935546875 1167.44921875 1167.4871826171875 1167.2550048828125 1167.7645263671875 1167.79736328125 1167.9447021484375 1167.9034423828125 1167.70166015625 1167.6290283203125 1167.7054443359375 1167.690673828125 1167.7728271484375 1167.7581787109375 1167.8140869140625 1167.8804931640625 1167.96044921875 1167.69677734375 1167.4664306640625 1167.405029296875 1167.5970458984375 1167.617919921875 1167.4417724609375 1167.4111328125 1167.2711181640625 1167.2396240234375 1167.25048828125 1167.1912841796875 1166.9442138671875 1167.239013671875 1167.5216064453125 1167.5203857421875 1167.5692138671875 1167.5576171875 1167.7572021484375 1168.006591796875 1167.479248046875 1167.8487548828125 1167.9788818359375 1167.9981689453125 1167.975341796875 1167.9326171875 1167.7784423828125 1167.7171630859375 1167.68115234375 1167.6583251953125 1167.4727783203125 1167.1376953125 1167.4833984375 1167.588134765625 1167.361572265625 1167.3839111328125 1168.0211181640625 1168.008544921875 1168.0313720703125 1167.8609619140625 1167.821044921875 1167.532958984375 1167.571533203125 1167.479248046875 1167.5360107421875 1167.506591796875 1167.506591796875 1167.45703125 1167.362060546875 1167.448486328125 1167.3692626953125 1167.3316650390625 1167.37841796875 1167.490478515625 1167.4990234375 1167.474609375 1167.5123291015625 1167.5810546875 1167.0098876953125 1167.64111328125 1167.618896484375 1167.5321044921875 1167.5106201171875 1167.6812744140625 1167.623779296875 1167.7744140625 1167.5394287109375
1166.3565673828125 1166.34716796875 1166.384033203125 1166.642333984375 1167.09423828125 1166.3621826171875 1166.3604736328125 1166.6951904296875 1166.806884765625 1167.0694580078125 1167.2694091796875 1167.25 1167.1400146484375 1167.2548828125 1166.57958984375 1166.389892578125 1166.2303466796875 1166.274658203125 1166.242431640625 1166.315673828125 1166.3939208984375 1166.598388671875 1166.59423828125 1166.4649658203125 1166.4586181640625 1166.3372802734375 1166.39697265625 1166.2889404296875 1166.281005859375 1166.473876953125 1166.9466552734375 1167.1650390625 1167.3134765625 1167.263916015625 1167.4595947265625 1167.491455078125 1167.2650146484375 1167.210205078125 1167.7003173828125 1167.4853515625 1167.064453125 1166.2901611328125 1166.3182373046875 1166.37060546875 1166.421142578125 1166.2633056640625 1166.2308349609375 1166.330810546875 1166.3486328125 1166.298095703125 1166.4677734375 1166.4766845703125 1166.453125 1166.507080078125 1166.5509033203125 1166.7264404296875 1166.7818603515625 1166.951416015625 1166.77783203125 1166.3726806640625 1166.4910888671875 1166.5260009765625 1166.5159912109375 1167.042236328125 1167.0926513671875 1167.0399169921875 1167.2757568359375 1167.314697265625 1167.451416015625 1167.4105224609375 1166.908447265625 1166.993896484375 1166.969970703125 1167.2930908203125 1167.5601806640625 1167.538818359375 1167.5550537109375 1167.6273193359375 1167.7586669921875 1167.539794921875 1167.5966796875 1167.2991943359375 1167.34716796875 1167.46826171875 1167.5965576171875 1167.5146484375 1167.3035888671875 1167.7418212890625 1167.76953125 1167.8704833984375 1167.9940185546875 1167.7320556640625 1167.7354736328125 1167.5687255859375 1167.6004638671875 1167.73779296875 1167.6990966796875 1167.8575439453125 1167.729248046875 1167.915283203125 1167.600341796875 1167.5623779296875 1167.541259765625 1167.5107421875 1167.493896484375 1167.3140869140625 1167.3775634765625 1167.2015380859375 1167.1932373046875 1167.2783203125 1167.3218994140625 1166.962158203125 1167.328857421875 1167.5179443359375 1167.52880859375 1167.575439453125 1167.671875 1167.81005859375 1168.2452392578125 1167.99951171875 1168.084716796875 1168.08251953125 1167.9688720703125 1167.8275146484375 1167.87890625 1167.665283203125 1167.59765625 1167.7186279296875 1167.7723388671875 1167.5589599609375 1167.1708984375 1167.553955078125 1167.6962890625 1167.5469970703125 1167.402587890625 1167.6959228515625 1168.0797119140625 1168.1148681640625 1167.817138671875 1167.8153076171875 1167.6346435546875 1167.5396728515625 1167.5701904296875 1167.5518798828125 1167.4703369140625 1167.523193359375 1167.4464111328125 1167.437255859375 1167.49072265625 1167.4285888671875 1167.63720703125 1167.8865966796875 1167.3726806640625 1167.5084228515625 1167.513427734375 1167.66796875 1167.7265625 1166.5240478515625 1167.750732421875 1167.5628662109375 1167.504638671875 1167.510009765625 1167.677978515625 1167.624267578125 1167.693603515625 1167.41357421875
1167.14501953125 1167.0770263671875 1166.8372802734375 1166.70849609375 1166.736083984375 1166.4415283203125 1166.431396484375 1166.68701171875 1166.80126953125 1167.1092529296875 1167.2318115234375 1167.2115478515625 1167.110595703125 1167.16845703125 1166.352783203125 1166.352783203125 1166.28564453125 1166.287353515625 1166.4049072265625 1166.3861083984375 1166.3651123046875 1166.533935546875 1166.4765625 1166.533935546875 1166.4365234375 1166.342529296875 1166.4151611328125 1166.32080078125 1166.2938232421875 1166.4613037109375 1167.0390625 1167.216552734375 1167.219970703125 1166.7431640625 1166.3856201171875 1166.41552734375 1166.546142578125 1166.6365966796875 1166.435302734375 1166.564453125 1166.6407470703125 1166.5806884765625 1166.57470703125 1166.41357421875 1166.580810546875 1166.3355712890625 1166.4591064453125 1166.4326171875 1166.791748046875 1166.3865966796875 1166.5487060546875 1166.33056640625 1166.35595703125 1166.529541015625 1166.655029296875 1166.950927734375 1166.8837890625 1166.9224853515625 1166.7926025390625 1166.3076171875 1166.447998046875 1166.4317626953125 1166.52978515625 1166.9439697265625 1167.1405029296875 1166.9814453125 1167.06201171875 1167.1768798828125 1167.0623779296875 1166.80517578125 1166.9085693359375 1167.0450439453125 1167.0662841796875 1167.30126953125 1167.5802001953125 1167.44677734375 1167.4676513671875 1167.53466796875 1167.6072998046875 1167.41455078125 1167.5965576171875 1167.2183837890625 1167.2484130859375 1167.14794921875 1167.181396484375 1167.2030029296875 1167.2181396484375 1168.014892578125 1167.878173828125 1167.7340087890625 1167.8739013671875 1167.611083984375 1167.719482421875 1167.649169921875 1167.41064453125 1167.6898193359375 1167.60400390625 1167.7281494140625 1167.7025146484375 1167.5584716796875 1167.55517578125 1167.789794921875 1167.6434326171875 1167.246826171875 1167.3238525390625 1167.6181640625 1167.6383056640625 1167.1116943359375 1167.1663818359375 1167.5653076171875 1167.59326171875 1167.080322265625 1167.1844482421875 1167.3526611328125 1167.52880859375 1167.6153564453125 1167.6439208984375 1167.811767578125 1167.7613525390625 1167.8759765625 1168.201416015625 1167.88623046875 1167.7728271484375 1167.6551513671875 1167.6026611328125 1167.5548095703125 1167.5328369140625 1167.2540283203125 1167.2322998046875 1167.2015380859375 1167.1728515625 1167.711669921875 1167.7783203125 1167.7325439453125 1167.4005126953125 1167.5086669921875 1167.7152099609375 1167.8179931640625 1167.60888671875 1167.8046875 1167.6925048828125 1167.757568359375 1167.5250244140625 1167.3873291015625 1167.385986328125 1167.34765625 1167.23828125 1167.5419921875 1167.5274658203125 1167.68701171875 1167.6629638671875 1167.606689453125 1167.5184326171875 1167.6436767578125 1167.66259765625 1167.8009033203125 1167.80859375 1166.6717529296875 1167.6409912109375 1167.81884765625 1167.893798828125 1167.78076171875 1167.7718505859375 1167.77587890625 1167.666015625 1167.3670654296875
1167.2005615234375 1167.1512451171875 1167.0865478515625 1166.8179931640625 1166.6160888671875 1166.4324951171875 1166.530029296875 1166.7303466796875 1166.83544921875 1167.0361328125 1167.1029052734375 1167.10986328125 1167.1092529296875 1166.921875 1166.2340087890625 1166.2607421875 1166.2105712890625 1166.288330078125 1166.376220703125 1166.4100341796875 1166.7515869140625 1166.5015869140625 1166.4312744140625 1166.397705078125 1166.404052734375 1166.3388671875 1166.3751220703125 1166.3499755859375 1166.3609619140625 1166.46826171875 1166.75732421875 1167.1064453125 1167.1417236328125 1166.6544189453125 1166.4384765625 1166.3179931640625 1166.4849853515625 1166.559814453125 1166.5257568359375 1166.64794921875 1166.6900634765625 1166.740966796875 1166.58642578125 1166.66748046875 1166.73291015625 1166.389892578125 1166.5111083984375 1166.516845703125 1166.5496826171875 1166.3167724609375 1166.4332275390625 1166.3720703125 1166.3946533203125 1166.37548828125 1166.4993896484375 1166.68798828125 1166.731201171875 1166.7454833984375 1166.753662109375 1166.3057861328125 1166.4991455078125 1166.471435546875 1166.5472412109375 1166.7215576171875 1166.6463623046875 1166.7470703125 1166.7760009765625 1166.77294921875 1166.7418212890625 1166.8031005859375 1167.2318115234375 1167.0362548828125 1167.1290283203125 1167.2974853515625 1167.5283203125 1167.462646484375 1167.5067138671875 1167.4515380859375 1167.4375 1167.350830078125 1167.3212890625 1167.2679443359375 1167.27880859375 1167.2496337890625 1167.2406005859375 1167.2745361328125 1167.1787109375 1167.9609375 1167.9462890625 1167.7418212890625 1167.9764404296875 1167.654052734375 1167.5782470703125 1167.77392578125 1167.406982421875 1167.405029296875 1167.4346923828125 1167.4617919921875 1167.4866943359375 1167.5439453125 1167.5614013671875 1167.8319091796875 1167.664794921875 1167.602783203125 1167.4521484375 1167.6934814453125 1167.5408935546875 1167.2462158203125 1167.2325439453125 1167.318115234375 1167.4625244140625 1167.575439453125 1167.557861328125 1167.5416259765625 1167.544677734375 1167.6016845703125 1167.5797119140625 1167.592041015625 1167.6314697265625 1167.5860595703125 1167.5732421875 1167.7459716796875 1167.7567138671875 1167.9268798828125 1168.04736328125 1167.9195556640625 1167.9173583984375 1167.493896484375 1167.47998046875 1167.276123046875 1167.25 1167.861572265625 1167.7498779296875 1167.7310791015625 1167.5804443359375 1167.361083984375 1167.4935302734375 1167.7698974609375 1167.6898193359375 1167.64404296875 1167.6953125 1167.39306640625 1167.44384765625 1167.3499755859375 1167.306884765625 1167.3104248046875 1167.3536376953125 1167.3349609375 1167.3028564453125 1166.93408203125 1166.9879150390625 1167.0223388671875 1167.498291015625 1167.6678466796875 1167.734619140625 1167.8197021484375 1167.87255859375 1166.944580078125 1167.6148681640625 1167.6842041015625 1167.864501953125 1167.985595703125 1167.9102783203125 1167.81005859375 1167.5198974609375 1167.7860107421875
1167.275634765625 1167.1854248046875 1167.1448974609375 1166.74462890625 1166.428955078125 1166.4500732421875 1166.6993408203125 1166.7322998046875 1166.903076171875 1166.8887939453125 1166.9732666015625 1166.97900390625 1167.0736083984375 1166.5546875 1166.5157470703125 1166.9573974609375 1167.1488037109375 1167.2127685546875 1167.0213623046875 1166.93359375 1166.702880859375 1166.44091796875 1166.397216796875 1166.582763671875 1166.4041748046875 1166.4017333984375 1166.3709716796875 1166.3079833984375 1166.52294921875 1166.44091796875 1166.5162353515625 1166.613037109375 1166.7320556640625 1166.65185546875 1166.5753173828125 1166.665283203125 1166.6300048828125 1166.5704345703125 1166.532470703125 1166.669677734375 1166.7470703125 1166.812255859375 1166.8809814453125 1166.4276123046875 1166.392578125 1166.6268310546875 1166.71826171875 1166.8037109375 1166.942626953125 1166.328125 1166.618896484375 1166.3262939453125 1166.4111328125 1166.3404541015625 1166.529052734375 1166.37255859375 1166.4063720703125 1166.467041015625 1166.5869140625 1166.703125 1166.6434326171875 1166.9620361328125 1166.8348388671875 1166.54638671875 1166.6729736328125 1166.7774658203125 1166.6939697265625 1166.8193359375 1166.889404296875 1166.8677978515625 1166.9840087890625 1167.0865478515625 1167.1092529296875 1167.443115234375 1167.6253662109375 1167.7103271484375 1167.7537841796875 1167.8123779296875 1167.5150146484375 1167.470703125 1167.432373046875 1167.487060546875 1167.4443359375 1167.4375 1167.3924560546875 1167.2431640625 1167.1451416015625 1167.7083740234375 1167.756103515625 1167.7225341796875 1167.6712646484375 1167.635986328125 1167.5279541015625 1167.72314453125 1167.55322265625 1167.51318359375 1167.5042724609375 1167.4962158203125 1167.534423828125 1167.693603515625 1167.714599609375 1167.6466064453125 1167.4620361328125 1167.594970703125 1167.786865234375 1167.59375 1167.572509765625 1167.467041015625 1167.2281494140625 1167.2763671875 1167.2374267578125 1167.257080078125 1167.14599609375 1167.4625244140625 1167.41796875 1167.54248046875 1167.4033203125 1167.3565673828125 1167.39794921875 1167.486572265625 1167.31201171875 1167.5938720703125 1167.6907958984375 1168.04638671875 1168.0361328125 1167.67431640625 1167.6373291015625 1167.7711181640625 1167.7822265625 1167.2724609375 1167.3875732421875 1167.3023681640625 1167.6937255859375 1167.75537109375 1167.7188720703125 1167.3865966796875 1167.309326171875 1167.8912353515625 1167.82958984375 1167.5877685546875 1167.526123046875 1167.4630126953125 1167.29736328125 1167.31787109375 1167.31298828125 1167.3084716796875 1167.427978515625 1167.1683349609375 1167.2630615234375 1166.9541015625 1166.918701171875 1166.9871826171875 1167.2626953125 1167.528564453125 1167.609375 1167.5911865234375 1167.833984375 1167.4959716796875 1167.6768798828125 1167.7498779296875 1167.7711181640625 1167.872802734375 1167.834228515625 1167.4034423828125 1167.363525390625 1167.4219970703125
1167.372314453125 1167.2584228515625 1167.16259765625 1166.71240234375 1166.4423828125 1166.457275390625 1166.6759033203125 1166.64111328125 1167.3519287109375 1166.8812255859375 1166.91943359375 1167.041015625 1167.07568359375 1166.381103515625 1166.7965087890625 1166.92529296875 1166.9610595703125 1166.971435546875 1166.80224609375 1167.0087890625 1166.63134765625 1166.5653076171875 1166.5760498046875 1166.7791748046875 1166.452392578125 1166.4215087890625 1166.411376953125 1166.328857421875 1166.353271484375 1166.465576171875 1166.3604736328125 1166.4610595703125 1166.510986328125 1166.5545654296875 1166.43408203125 1166.4105224609375 1166.8404541015625 1166.7935791015625 1166.447998046875 1166.878173828125 1166.8536376953125 1166.614013671875 1166.2796630859375 1166.26220703125 1166.4398193359375 1166.7115478515625 1166.7403564453125 1166.8963623046875 1167.459228515625 1166.369384765625 1166.7723388671875 1166.3450927734375 1166.4517822265625 1166.3134765625 1166.385009765625 1166.43115234375 1166.5174560546875 1166.5576171875 1166.608642578125 1166.8865966796875 1166.9627685546875 1167.04345703125 1167.0185546875 1166.58251953125 1166.6541748046875 1166.7119140625 1166.817626953125 1166.8865966796875 1166.96044921875 1166.9560546875 1166.993408203125 1167.052490234375 1167.1009521484375 1167.35009765625 1167.4710693359375 1167.3292236328125 1167.2989501953125 1167.6444091796875 1167.5205078125 1167.620361328125 1167.3973388671875 1167.345947265625 1167.3251953125 1167.40234375 1167.3035888671875 1167.25 1167.1639404296875 1167.4822998046875 1167.4859619140625 1167.3365478515625 1167.3011474609375 1167.496826171875 1167.49853515625 1167.684326171875 1167.7091064453125 1167.61962890625 1167.634033203125 1167.669189453125 1167.682861328125 1167.75048828125 1167.68994140625 1167.65966796875 1167.3240966796875 1167.5257568359375 1167.7369384765625 1167.4722900390625 1167.1785888671875 1167.0970458984375 1166.8714599609375 1167.11962890625 1167.1429443359375 1167.2626953125 1167.20751953125 1167.2952880859375 1167.43603515625 1167.4324951171875 1167.3946533203125 1167.3330078125 1167.312255859375 1167.4000244140625 1167.294189453125 1167.5103759765625 1167.5458984375 1167.660400390625 1167.6038818359375 1167.6400146484375 1167.4285888671875 1167.89111328125 1167.8165283203125 1166.98828125 1167.4927978515625 1167.4261474609375 1167.294677734375 1167.6505126953125 1167.7137451171875 1167.7254638671875 1167.5374755859375 1167.6065673828125 1167.9940185546875 1167.4056396484375 1167.5936279296875 1167.4329833984375 1167.2703857421875 1167.2989501953125 1167.273193359375 1167.4393310546875 1167.5157470703125 1167.1173095703125 1167.1883544921875 1167.177734375 1167.0675048828125 1167.7237548828125 1167.461669921875 1167.408203125 1167.98486328125 1167.926025390625 1167.6954345703125 1167.713134765625 1168.0089111328125 1167.8175048828125 1167.614990234375 1167.8978271484375 1167.9000244140625 1167.53515625 1167.481689453125 1167.571533203125
1167.593017578125 1167.4339599609375 1167.201416015625 1166.6910400390625 1166.426025390625 1166.451416015625 1167.0216064453125 1167.21142578125 1166.8553466796875 1166.8807373046875 1166.99951171875 1167.063232421875 1167.0882568359375 1167.01123046875 1167.0177001953125 1166.837158203125 1166.8065185546875 1166.8125 1166.9122314453125 1166.709228515625 1166.5904541015625 1166.7281494140625 1166.7274169921875 1166.802490234375 1166.6912841796875 1166.6307373046875 1166.647216796875 1166.3583984375 1166.3094482421875 1166.397705078125 1166.3350830078125 1166.3900146484375 1166.368896484375 1166.3773193359375 1166.357177734375 1166.190673828125 1166.6392822265625 1166.6947021484375 1166.478515625 1166.7724609375 1166.8636474609375 1166.42919921875 1166.1561279296875 1166.2579345703125 1166.4625244140625 1166.6243896484375 1166.95654296875 1167.4346923828125 1167.5965576171875 1166.5274658203125 1166.4710693359375 1166.5362548828125 1166.4906005859375 1166.4390869140625 1166.4183349609375 1166.46142578125 1166.4705810546875 1166.90673828125 1166.4677734375 1166.6890869140625 1166.7484130859375 1166.7862548828125 1166.67919921875 1166.5777587890625 1166.62060546875 1166.7298583984375 1166.8740234375 1166.871826171875 1166.8690185546875 1166.9783935546875 1166.9598388671875 1167.000732421875 1167.1231689453125 1167.1802978515625 1167.2314453125 1167.332763671875 1167.3336181640625 1167.31103515625 1167.24365234375 1167.2520751953125 1167.2115478515625 1167.3031005859375 1167.4503173828125 1167.7923583984375 1167.5157470703125 1167.4793701171875 1167.251708984375 1167.2037353515625 1167.2386474609375 1167.3092041015625 1167.279052734375 1167.2386474609375 1167.4754638671875 1167.6064453125 1167.2303466796875 1167.2667236328125 1167.329345703125 1167.60546875 1167.647216796875 1167.7347412109375 1167.3353271484375 1167.08154296875 1167.25634765625 1167.339111328125 1167.1988525390625 1167.11767578125 1166.783935546875 1166.895263671875 1166.8251953125 1167.00048828125 1167.240966796875 1167.0780029296875 1167.2437744140625 1167.23779296875 1167.4267578125 1167.5445556640625 1167.5054931640625 1167.321044921875 1167.3212890625 1167.4290771484375 1167.45947265625 1167.4302978515625 1167.3436279296875 1167.3226318359375 1167.3153076171875 1167.514404296875 1167.35498046875 1167.59033203125 1167.8046875 1166.831298828125 1167.7044677734375 1167.5693359375 1167.65380859375 1167.720703125 1167.692138671875 1167.524169921875 1167.7471923828125 1167.464111328125 1167.6846923828125 1167.56494140625 1167.471923828125 1167.4608154296875 1167.360107421875 1167.3692626953125 1167.31591796875 1167.3502197265625 1167.393310546875 1167.0921630859375 1167.526611328125 1167.95263671875 1167.9384765625 1167.720947265625 1167.33349609375 1167.3890380859375 1168.0157470703125 1168.1090087890625 1167.0150146484375 1167.75048828125 1167.82373046875 1167.943603515625 1167.5997314453125 1167.4407958984375 1167.6607666015625 1167.772705078125 1167.492431640625 1167.404052734375
1167.120361328125 1166.98486328125 1166.87841796875 1166.382080078125 1166.417724609375 1166.4381103515625 1166.9178466796875 1167.13818359375 1166.7578125 1166.99365234375 1166.746337890625 1166.9610595703125 1166.9764404296875 1166.9228515625 1166.9326171875 1166.9609375 1166.770263671875 1166.86962890625 1166.9842529296875 1166.83642578125 1166.6365966796875 1166.7459716796875 1166.833984375 1166.8726806640625 1166.935791015625 1166.868408203125 1166.9254150390625 1166.6331787109375 1166.686767578125 1166.40576171875 1166.3551025390625 1166.3062744140625 1166.34326171875 1166.3699951171875 1166.3128662109375 1166.20654296875 1166.4732666015625 1166.474609375 1166.439697265625 1166.5357666015625 1166.5794677734375 1166.186767578125 1166.17333984375 1166.1724853515625 1166.2789306640625 1166.4315185546875 1166.5693359375 1167.5335693359375 1167.2880859375 1166.5721435546875 1166.5469970703125 1166.700927734375 1166.4542236328125 1166.5450439453125 1166.4796142578125 1166.440673828125 1166.4447021484375 1167.174072265625 1166.596435546875 1166.807861328125 1166.7786865234375 1166.76513671875 1166.7410888671875 1166.637451171875 1166.6495361328125 1166.764404296875 1166.8079833984375 1166.803466796875 1166.7926025390625 1166.814697265625 1166.880126953125 1166.9749755859375 1167.1522216796875 1167.2396240234375 1167.27783203125 1167.2989501953125 1167.350341796875 1167.35791015625 1167.29345703125 1167.25048828125 1167.287353515625 1167.293212890625 1167.1956787109375 1167.69189453125 1167.7449951171875 1167.4896240234375 1167.2872314453125 1167.2593994140625 1167.24658203125 1167.2784423828125 1167.3065185546875 1167.2462158203125 1167.5894775390625 1167.24072265625 1166.9443359375 1166.8187255859375 1166.795654296875 1167.0562744140625 1167.5367431640625 1167.190673828125 1166.9818115234375 1167.076416015625 1167.3123779296875 1167.2591552734375 1167.06787109375 1166.8292236328125 1166.732177734375 1166.843017578125 1166.8397216796875 1166.9151611328125 1167.1004638671875 1167.0120849609375 1166.987548828125 1166.9912109375 1167.2958984375 1167.59814453125 1167.580322265625 1167.27880859375 1167.295654296875 1167.4715576171875 1167.427978515625 1167.3931884765625 1167.3148193359375 1167.337158203125 1167.3717041015625 1167.509033203125 1167.32763671875 1167.800048828125 1167.7762451171875 1166.68798828125 1167.4202880859375 1167.57080078125 1167.609619140625 1167.7554931640625 1167.658447265625 1167.5335693359375 1167.5540771484375 1167.5029296875 1167.6585693359375 1167.678466796875 1167.44970703125 1167.3702392578125 1167.4547119140625 1167.311279296875 1167.2720947265625 1167.275634765625 1167.23583984375 1167.9091796875 1168.0299072265625 1167.9378662109375 1168.01220703125 1167.57861328125 1167.3818359375 1167.390380859375 1168.09033203125 1168.0220947265625 1166.5355224609375 1167.768798828125 1167.8309326171875 1167.771728515625 1167.5787353515625 1167.399169921875 1167.475830078125 1167.885498046875 1167.8392333984375 1167.447021484375
1166.422119140625 1166.5467529296875 1166.5013427734375 1166.3831787109375 1166.416259765625 1166.397216796875 1166.4732666015625 1166.6317138671875 1166.54248046875 1166.513671875 1166.3343505859375 1166.4173583984375 1166.2867431640625 1166.79443359375 1166.7750244140625 1167.09765625 1167.103759765625 1167.1407470703125 1167.0224609375 1166.85986328125 1166.991455078125 1166.5782470703125 1166.7415771484375 1166.8443603515625 1167.017822265625 1166.835693359375 1166.978759765625 1166.8902587890625 1166.9029541015625 1166.2733154296875 1166.2806396484375 1166.3177490234375 1166.3470458984375 1166.3477783203125 1166.3692626953125 1166.2637939453125 1166.4107666015625 1166.47509765625 1166.6246337890625 1166.6949462890625 1166.5712890625 1166.2220458984375 1166.215576171875 1166.2607421875 1166.2769775390625 1166.3675537109375 1166.2786865234375 1166.5218505859375 1166.4659423828125 1166.54541015625 1166.5294189453125 1166.3243408203125 1166.3714599609375 1166.44873046875 1166.3878173828125 1166.4503173828125 1166.5150146484375 1166.395751953125 1166.670166015625 1166.7115478515625 1166.535888671875 1166.6971435546875 1166.7545166015625 1166.8013916015625 1167.101806640625 1167.1226806640625 1166.9986572265625 1166.8182373046875 1166.7745361328125 1167.028564453125 1167.0291748046875 1167.0396728515625 1167.06005859375 1167.1695556640625 1167.217041015625 1167.26611328125 1167.2783203125 1167.2823486328125 1167.2562255859375 1167.290771484375 1167.3037109375 1167.3726806640625 1167.33740234375 1167.3270263671875 1167.4849853515625 1167.24560546875 1167.3416748046875 1167.341064453125 1167.2596435546875 1167.2501220703125 1167.21923828125 1167.3123779296875 1167.0306396484375 1166.9697265625 1166.81396484375 1166.7012939453125 1166.783935546875 1166.776611328125 1166.9088134765625 1166.920654296875 1166.876220703125 1167.1708984375 1167.1544189453125 1166.94189453125 1166.822509765625 1166.8309326171875 1166.7147216796875 1166.8829345703125 1166.9007568359375 1166.90234375 1166.9739990234375 1167.0526123046875 1167.0858154296875 1167.030029296875 1167.2774658203125 1167.5245361328125 1167.84716796875 1167.3353271484375 1167.3304443359375 1167.56298828125 1167.2872314453125 1167.3182373046875 1167.3045654296875 1167.2630615234375 1167.5570068359375 1167.6339111328125 1167.6427001953125 1167.55224609375 1168.040771484375 1166.3720703125 1166.957275390625 1167.0946044921875 1167.477294921875 1167.6678466796875 1167.6602783203125 1167.4879150390625 1167.4893798828125 1167.52392578125 1167.7515869140625 1167.84619140625 1167.5567626953125 1167.424560546875 1167.392578125 1167.3804931640625 1167.5211181640625 1167.9837646484375 1168.071533203125 1168.1298828125 1168.0726318359375 1168.0931396484375 1168.18359375 1167.6756591796875 1167.3831787109375 1167.48876953125 1168.1060791015625 1167.9791259765625 1166.5235595703125 1168.03564453125 1167.9368896484375 1167.7872314453125 1167.7191162109375 1167.5535888671875 1167.5751953125 1167.923095703125 1168.0230712890625 1167.603515625
1166.40771484375 1166.4444580078125 1166.3973388671875 1166.2867431640625 1166.4217529296875 1166.4195556640625 1166.64794921875 1166.8843994140625 1166.7322998046875 1166.9864501953125 1166.9476318359375 1167.0408935546875 1166.955810546875 1166.8282470703125 1166.780029296875 1166.6585693359375 1166.579833984375 1166.422607421875 1166.6824951171875 1166.4613037109375 1166.32470703125 1166.5760498046875 1166.5841064453125 1166.531982421875 1166.7662353515625 1166.66064453125 1166.67529296875 1166.7801513671875 1166.7664794921875 1166.31298828125 1166.399658203125 1166.38525390625 1166.4052734375 1166.540283203125 1166.838134765625 1166.7381591796875 1166.6607666015625 1166.5736083984375 1166.6640625 1166.5643310546875 1166.48193359375 1166.20751953125 1166.327880859375 1166.4185791015625 1166.46630859375 1166.5009765625 1166.473876953125 1166.40234375 1166.3482666015625 1166.7738037109375 1166.844482421875 1166.7894287109375 1166.778564453125 1166.710205078125 1166.6439208984375 1166.6932373046875 1166.776611328125 1166.5809326171875 1166.606201171875 1166.6717529296875 1166.74609375 1167.82861328125 1167.60205078125 1167.605712890625 1168.0738525390625 1167.3677978515625 1167.1346435546875 1167.0489501953125 1166.833740234375 1166.9385986328125 1166.8839111328125 1166.92919921875 1167.0172119140625 1167.1923828125 1167.190673828125 1167.2388916015625 1167.303955078125 1167.2432861328125 1167.2523193359375 1167.1898193359375 1167.2431640625 1167.3223876953125 1167.295166015625 1167.183349609375 1167.2327880859375 1167.4300537109375 1167.485595703125 1167.534423828125 1167.2562255859375 1167.23779296875 1167.2713623046875 1167.1875 1166.91943359375 1166.9100341796875 1166.8846435546875 1166.689697265625 1166.749267578125 1166.8978271484375 1166.7406005859375 1166.7994384765625 1166.878173828125 1167.1517333984375 1167.0440673828125 1166.9039306640625 1166.803955078125 1166.798583984375 1166.7587890625 1166.8753662109375 1166.905517578125 1166.8944091796875 1166.9981689453125 1167.0479736328125 1167.1068115234375 1167.030029296875 1167.3251953125 1167.4322509765625 1167.8123779296875 1167.41796875 1167.385986328125 1167.3453369140625 1167.2939453125 1167.3057861328125 1167.3153076171875 1167.20654296875 1167.7684326171875 1168.1680908203125 1167.6612548828125 1167.2738037109375 1167.65283203125 1166.45947265625 1167.1405029296875 1167.07861328125 1167.3040771484375 1167.6748046875 1167.7259521484375 1167.6441650390625 1167.5267333984375 1167.68994140625 1167.8934326171875 1167.96435546875 1167.8843994140625 1167.4647216796875 1167.4844970703125 1167.4105224609375 1167.466064453125 1168.033447265625 1168.119140625 1168.212646484375 1168.23486328125 1168.1767578125 1168.251220703125 1168.2965087890625 1168.15576171875 1168.0892333984375 1168.1395263671875 1167.6964111328125 1167.040283203125 1168.1070556640625 1168.07763671875 1167.90771484375 1167.8743896484375 1167.561279296875 1167.6014404296875 1167.9083251953125 1168.0137939453125 1167.5458984375
1166.399169921875 1166.4251708984375 1166.452392578125 1166.26708984375 1166.408447265625 1166.4273681640625 1166.807373046875 1166.9195556640625 1166.8848876953125 1166.8150634765625 1166.8717041015625 1167.001220703125 1167.0260009765625 1166.795654296875 1166.83349609375 1166.857421875 1166.8857421875 1166.9927978515625 1167.00146484375 1166.8365478515625 1166.710693359375 1166.60791015625 1166.6865234375 1166.87451171875 1166.73779296875 1166.5897216796875 1166.686767578125 1166.59326171875 1166.5589599609375 1166.6737060546875 1166.6016845703125 1166.5350341796875 1166.578369140625 1166.7640380859375 1166.8370361328125 1166.8812255859375 1166.8314208984375 1166.6719970703125 1166.473388671875 1166.5118408203125 1166.4189453125 1166.446044921875 1166.4853515625 1166.6663818359375 1166.4744873046875 1166.6663818359375 1166.5238037109375 1166.4066162109375 1166.5015869140625 1166.83544921875 1166.79052734375 1166.9376220703125 1166.992919921875 1166.7454833984375 1166.68017578125 1166.9315185546875 1166.9591064453125 1166.909423828125 1167.0870361328125 1166.651123046875 1166.7801513671875 1166.9251708984375 1167.48974609375 1167.1009521484375 1167.294677734375 1167.153564453125 1167.3128662109375 1167.003662109375 1166.949462890625 1167.12548828125 1167.104736328125 1167.0257568359375 1167.055908203125 1167.4259033203125 1167.4278564453125 1167.2109375 1167.2442626953125 1167.28369140625 1167.2606201171875 1167.2330322265625 1167.237060546875 1167.3331298828125 1167.3167724609375 1167.372802734375 1167.204345703125 1167.224365234375 1167.0362548828125 1167.4068603515625 1167.7005615234375 1167.9549560546875 1167.6265869140625 1167.4439697265625 1167.1541748046875 1166.9437255859375 1166.9293212890625 1166.7208251953125 1166.787353515625 1166.8040771484375 1166.8626708984375 1166.794189453125 1166.7171630859375 1166.7069091796875 1166.6976318359375 1166.756591796875 1166.7879638671875 1166.727294921875 1166.7564697265625 1166.9525146484375 1166.827392578125 1166.8455810546875 1166.9627685546875 1167.06982421875 1167.0882568359375 1167.2259521484375 1167.3377685546875 1167.389404296875 1167.51904296875 1167.432861328125 1167.3287353515625 1167.3056640625 1167.259033203125 1167.2655029296875 1167.3187255859375 1167.4342041015625 1167.74462890625 1168.17919921875 1168.0067138671875 1167.7349853515625 1167.7548828125 1167.4925537109375 1167.585205078125 1167.5155029296875 1167.6849365234375 1167.7811279296875 1167.7506103515625 1167.5284423828125 1167.572998046875 1167.9178466796875 1168.056884765625 1168.501220703125 1168.1285400390625 1167.8232421875 1167.9293212890625 1167.8978271484375 1167.5457763671875 1167.96142578125 1168.1109619140625 1168.197265625 1168.1348876953125 1168.0634765625 1168.077392578125 1168.14111328125 1168.22998046875 1168.26611328125 1168.2281494140625 1166.8460693359375 1167.7314453125 1167.90478515625 1167.910888671875 1167.902099609375 1168.0423583984375 1167.5084228515625 1167.510009765625 1167.6005859375 1167.5010986328125 1167.3140869140625
1166.4591064453125 1166.4163818359375 1166.4154052734375 1166.263427734375 1166.3651123046875 1166.444580078125 1167.203125 1167.1021728515625 1167.1549072265625 1167.43359375 1167.002685546875 1166.921630859375 1166.9766845703125 1167.079345703125 1167.156005859375 1167.164794921875 1167.0333251953125 1166.965576171875 1167.02685546875 1166.930419921875 1166.810791015625 1166.7080078125 1166.7332763671875 1167.3330078125 1166.7550048828125 1166.7816162109375 1166.5689697265625 1166.7457275390625 1166.5693359375 1166.52587890625 1166.5831298828125 1166.9365234375 1166.6739501953125 1166.8951416015625 1166.8416748046875 1166.86181640625 1166.8201904296875 1166.9013671875 1166.6893310546875 1166.73828125 1166.737060546875 1166.4755859375 1166.627197265625 1166.47021484375 1166.4442138671875 1166.81640625 1166.81689453125 1166.478759765625 1166.5367431640625 1166.5545654296875 1166.7130126953125 1166.87158203125 1166.942626953125 1166.8006591796875 1166.64208984375 1166.8533935546875 1166.9051513671875 1166.9627685546875 1166.997802734375 1166.6812744140625 1166.7686767578125 1166.77490234375 1167.1680908203125 1167.439697265625 1167.30029296875 1166.6937255859375 1166.8570556640625 1166.91796875 1166.9248046875 1166.8001708984375 1166.935791015625 1167.001708984375 1167.0648193359375 1167.4522705078125 1167.4744873046875 1167.071533203125 1167.0848388671875 1167.2384033203125 1167.2559814453125 1167.2105712890625 1167.2490234375 1167.310302734375 1167.2265625 1167.1322021484375 1167.0224609375 1167.062255859375 1167.03466796875 1167.19482421875 1167.3795166015625 1167.53564453125 1167.2264404296875 1167.0731201171875 1167.112548828125 1167.1751708984375 1166.95166015625 1166.6624755859375 1166.72607421875 1166.7791748046875 1166.9005126953125 1166.7509765625 1166.6630859375 1166.6483154296875 1166.6787109375 1166.650146484375 1166.6854248046875 1166.71044921875 1166.73681640625 1166.9959716796875 1166.8421630859375 1166.85791015625 1167.178955078125 1167.1448974609375 1167.167236328125 1167.18115234375 1167.295654296875 1167.3785400390625 1167.3377685546875 1167.4078369140625 1167.417236328125 1167.7799072265625 1167.59521484375 1167.2916259765625 1167.286865234375 1167.376220703125 1167.596923828125 1168.01416015625 1167.93310546875 1167.7305908203125 1167.70556640625 1167.7281494140625 1167.6121826171875 1167.631591796875 1167.7596435546875 1167.8328857421875 1167.812255859375 1167.69873046875 1167.526123046875 1168.0367431640625 1168.314697265625 1168.516845703125 1168.389404296875 1167.8502197265625 1167.9697265625 1168.0902099609375 1167.8387451171875 1167.9688720703125 1168.5689697265625 1168.51904296875 1168.5380859375 1167.958251953125 1167.9874267578125 1168.1221923828125 1168.2744140625 1168.1617431640625 1168.098388671875 1166.5274658203125 1167.862060546875 1167.6939697265625 1167.6409912109375 1167.63623046875 1167.779052734375 1167.555419921875 1167.6583251953125 1167.5849609375 1167.5235595703125 1167.4140625
1166.442626953125 1166.4259033203125 1166.32861328125 1166.2564697265625 1166.2645263671875 1166.3193359375 1167.140869140625 1167.5023193359375 1167.71630859375 1167.9468994140625 1167.3643798828125 1167.2991943359375 1167.2562255859375 1167.196044921875 1167.171875 1167.1820068359375 1166.888427734375 1167.1552734375 1167.0953369140625 1167.0135498046875 1166.8973388671875 1166.817626953125 1167.00439453125 1167.01953125 1166.800048828125 1166.5341796875 1166.5162353515625 1166.5391845703125 1166.51025390625 1166.4442138671875 1166.54248046875 1166.56982421875 1167.1871337890625 1167.0919189453125 1167.014404296875 1167.0631103515625 1167.07568359375 1166.764892578125 1166.5753173828125 1166.61328125 1166.4237060546875 1166.517333984375 1166.5518798828125 1166.5328369140625 1166.427001953125 1166.56201171875 1166.4619140625 1166.4278564453125 1166.55517578125 1166.427978515625 1166.546875 1166.7144775390625 1166.8370361328125 1166.7567138671875 1166.6434326171875 1166.730224609375 1166.7720947265625 1166.9547119140625 1166.9522705078125 1166.8232421875 1166.712646484375 1166.7642822265625 1166.862060546875 1166.9866943359375 1167.3013916015625 1166.7794189453125 1166.8896484375 1166.897216796875 1166.7828369140625 1166.79345703125 1166.7684326171875 1166.9761962890625 1167.027587890625 1167.361572265625 1167.3184814453125 1167.0888671875 1166.9527587890625 1167.0087890625 1167.218017578125 1167.189697265625 1167.1668701171875 1167.3455810546875 1167.233154296875 1167.066650390625 1167.08154296875 1167.052490234375 1167.1590576171875 1167.2008056640625 1167.2427978515625 1167.18798828125 1167.1326904296875 1166.845947265625 1166.8179931640625 1167.0223388671875 1166.9810791015625 1166.6871337890625 1166.6131591796875 1166.6796875 1166.60546875 1166.7137451171875 1166.6834716796875 1166.6827392578125 1166.937744140625 1166.742919921875 1166.6427001953125 1166.621826171875 1166.7958984375 1166.866943359375 1166.822021484375 1166.92529296875 1167.2113037109375 1166.97705078125 1167.070068359375 1167.07421875 1167.1768798828125 1167.3662109375 1167.4652099609375 1167.4888916015625 1167.565673828125 1167.5341796875 1167.7581787109375 1167.41015625 1167.2232666015625 1167.28076171875 1167.4256591796875 1167.9537353515625 1167.93994140625 1167.6976318359375 1167.596923828125 1167.82080078125 1167.6214599609375 1167.611083984375 1167.61474609375 1167.5758056640625 1167.569091796875 1167.60546875 1167.7618408203125 1167.947021484375 1168.4898681640625 1168.5635986328125 1168.5645751953125 1168.2967529296875 1167.8712158203125 1168.138916015625 1168.2381591796875 1167.8505859375 1168.6348876953125 1168.947998046875 1168.85888671875 1168.123779296875 1168.25830078125 1168.3707275390625 1168.2376708984375 1168.0462646484375 1168.10205078125 1166.93115234375 1167.75830078125 1167.5208740234375 1167.6932373046875 1167.512451171875 1167.4337158203125 1167.6102294921875 1167.8560791015625 1167.946533203125 1167.83203125 1167.3006591796875
1166.417236328125 1166.3583984375 1166.4432373046875 1166.2794189453125 1166.3843994140625 1166.3505859375 1167.2923583984375 1167.4666748046875 1167.60009765625 1167.6732177734375 1167.405517578125 1167.3134765625 1167.307861328125 1167.251708984375 1167.2998046875 1167.197998046875 1166.9058837890625 1167.1524658203125 1167.1856689453125 1166.91357421875 1166.9130859375 1166.9747314453125 1167.1556396484375 1167.08935546875 1166.809814453125 1166.57958984375 1166.4671630859375 1166.527099609375 1166.5675048828125 1166.46142578125 1166.506591796875 1166.460205078125 1166.887451171875 1167.033935546875 1167.017333984375 1167.1002197265625 1167.005859375 1166.640625 1166.82861328125 1166.8389892578125 1166.5614013671875 1166.570068359375 1166.5960693359375 1166.4320068359375 1166.483642578125 1166.4041748046875 1166.4010009765625 1166.41162109375 1166.5335693359375 1166.4488525390625 1166.5556640625 1166.708740234375 1166.8778076171875 1166.6590576171875 1166.835205078125 1166.8118896484375 1166.704345703125 1166.7884521484375 1166.716552734375 1166.7601318359375 1166.77685546875 1166.7557373046875 1166.74462890625 1166.8927001953125 1167.1370849609375 1166.8868408203125 1166.8729248046875 1166.7711181640625 1166.7532958984375 1166.8204345703125 1166.906494140625 1167.04541015625 1167.0167236328125 1167.239013671875 1167.24755859375 1167.0552978515625 1166.923095703125 1166.9658203125 1167.0692138671875 1167.1455078125 1167.149658203125 1167.150146484375 1167.1007080078125 1167.053955078125 1167.080322265625 1167.05615234375 1167.10791015625 1167.2120361328125 1167.232666015625 1167.18603515625 1167.12451171875 1166.96875 1166.86279296875 1166.9462890625 1167.0687255859375 1166.7677001953125 1166.6585693359375 1166.64111328125 1166.650390625 1166.6395263671875 1166.7144775390625 1166.780029296875 1166.8548583984375 1166.82958984375 1166.8167724609375 1166.6260986328125 1166.77880859375 1166.874267578125 1166.8580322265625 1166.967529296875 1167.14892578125 1167.0882568359375 1167.0579833984375 1167.089599609375 1167.2073974609375 1167.3941650390625 1167.4844970703125 1167.615966796875 1167.662841796875 1167.334716796875 1167.3475341796875 1167.354736328125 1167.209716796875 1167.14501953125 1167.2119140625 1167.46142578125 1167.432861328125 1167.60205078125 1167.477294921875 1167.590087890625 1167.6593017578125 1167.3740234375 1167.366455078125 1167.335205078125 1167.3687744140625 1167.4578857421875 1167.5863037109375 1167.9970703125 1168.6243896484375 1168.6260986328125 1168.50439453125 1167.61767578125 1168.0025634765625 1168.1044921875 1168.2445068359375 1167.90283203125 1168.932373046875 1169.1370849609375 1169.0699462890625 1168.7576904296875 1168.7413330078125 1168.45361328125 1168.3255615234375 1168.0975341796875 1168.096435546875 1167.498779296875 1167.778564453125 1167.5130615234375 1167.6038818359375 1167.455322265625 1167.5 1167.647216796875 1167.9375 1167.82421875 1167.854248046875 1167.6461181640625
1166.2900390625 1166.3717041015625 1167.025634765625 1166.278076171875 1166.401123046875 1166.74609375 1166.9586181640625 1167.0274658203125 1166.932861328125 1166.968994140625 1167.0841064453125 1167.2506103515625 1167.338134765625 1167.487060546875 1167.4803466796875 1167.2060546875 1167.075927734375 1167.2816162109375 1167.286376953125 1167.284912109375 1167.1802978515625 1167.194091796875 1167.1427001953125 1166.9761962890625 1166.7281494140625 1166.4766845703125 1166.454833984375 1166.92236328125 1166.7574462890625 1166.5040283203125 1166.555419921875 1166.557373046875 1166.4464111328125 1166.4317626953125 1166.9862060546875 1167.1390380859375 1167.0279541015625 1166.9146728515625 1166.76513671875 1166.684326171875 1166.674560546875 1166.5506591796875 1166.6259765625 1166.3526611328125 1166.400634765625 1166.3868408203125 1166.3734130859375 1166.4814453125 1166.4527587890625 1166.3951416015625 1166.4281005859375 1166.4373779296875 1166.5428466796875 1166.6864013671875 1166.80908203125 1166.982177734375 1166.6446533203125 1166.6256103515625 1166.635498046875 1166.717529296875 1166.65576171875 1166.705322265625 1166.7947998046875 1166.905517578125 1167.0018310546875 1166.9979248046875 1166.9503173828125 1166.8402099609375 1166.8402099609375 1166.92919921875 1166.9317626953125 1166.9437255859375 1166.962646484375 1167.198486328125 1167.2354736328125 1167.0960693359375 1166.8472900390625 1166.905029296875 1167.1099853515625 1167.0775146484375 1167.10009765625 1167.3580322265625 1167.5732421875 1167.5032958984375 1167.1287841796875 1167.0543212890625 1167.1195068359375 1167.279052734375 1167.2537841796875 1167.227783203125 1167.0589599609375 1167.0072021484375 1166.850830078125 1167.0478515625 1166.882080078125 1166.6551513671875 1166.6168212890625 1166.617919921875 1166.636474609375 1166.631103515625 1166.661376953125 1166.6915283203125 1166.878662109375 1166.653564453125 1166.6885986328125 1166.6339111328125 1166.6668701171875 1166.88232421875 1167.0302734375 1166.9669189453125 1167.26123046875 1167.2818603515625 1167.1856689453125 1167.192138671875 1167.1708984375 1167.19873046875 1167.16845703125 1167.2900390625 1167.3338623046875 1167.26318359375 1167.423583984375 1167.286376953125 1167.2991943359375 1167.1484375 1167.22705078125 1167.39599609375 1167.5218505859375 1167.5328369140625 1167.106689453125 1167.4156494140625 1167.4246826171875 1167.4390869140625 1167.453369140625 1167.4180908203125 1167.3912353515625 1167.406005859375 1167.49169921875 1167.8028564453125 1168.6741943359375 1168.8206787109375 1168.8321533203125 1167.6444091796875 1168.0675048828125 1168.2249755859375 1168.074462890625 1167.74462890625 1168.8109130859375 1168.81689453125 1168.6845703125 1168.7506103515625 1168.646240234375 1168.455078125 1168.25244140625 1168.0306396484375 1167.6932373046875 1167.6907958984375 1167.5269775390625 1167.4688720703125 1167.2833251953125 1167.4388427734375 1167.2052001953125 1166.66015625 1166.3504638671875 1166.0181884765625 1165.97314453125 1165.967529296875
1166.2904052734375 1166.39404296875 1166.7694091796875 1166.3594970703125 1166.4041748046875 1166.900634765625 1166.4884033203125 1166.52294921875 1166.5804443359375 1166.574462890625 1166.846435546875 1167.2230224609375 1167.44921875 1167.4478759765625 1167.3802490234375 1167.2471923828125 1167.2640380859375 1167.359375 1167.37109375 1167.402099609375 1167.3446044921875 1167.2889404296875 1167.2840576171875 1166.9766845703125 1166.7484130859375 1166.4197998046875 1166.5372314453125 1166.706298828125 1166.6741943359375 1166.606689453125 1166.6260986328125 1166.5731201171875 1166.5087890625 1166.3499755859375 1166.90283203125 1167.06591796875 1167.0478515625 1166.846435546875 1166.86767578125 1166.4423828125 1166.434814453125 1166.4158935546875 1166.372802734375 1166.3792724609375 1166.33544921875 1166.3902587890625 1166.37255859375 1166.41015625 1166.396240234375 1166.34033203125 1166.4459228515625 1166.43017578125 1166.430419921875 1166.7569580078125 1166.75634765625 1166.75146484375 1166.4853515625 1166.6195068359375 1166.6807861328125 1166.5843505859375 1166.6812744140625 1166.7255859375 1166.83447265625 1166.8701171875 1166.85888671875 1167.2459716796875 1166.9581298828125 1166.935302734375 1166.9395751953125 1166.8834228515625 1166.9307861328125 1166.8787841796875 1166.94970703125 1167.165771484375 1167.194091796875 1166.940673828125 1166.8052978515625 1166.9500732421875 1167.2132568359375 1167.1148681640625 1167.097900390625 1167.12353515625 1167.4708251953125 1167.9932861328125 1167.468994140625 1167.116455078125 1167.1094970703125 1167.064697265625 1167.04931640625 1167.2191162109375 1167.0653076171875 1166.95556640625 1166.83642578125 1166.8717041015625 1166.6951904296875 1166.658203125 1166.6405029296875 1166.5938720703125 1166.5909423828125 1166.617919921875 1166.62353515625 1166.661376953125 1166.6834716796875 1166.73046875 1166.7301025390625 1166.71142578125 1166.7318115234375 1166.950439453125 1166.8125 1166.9697265625 1167.088134765625 1167.0966796875 1167.1331787109375 1167.04150390625 1167.22119140625 1167.234375 1167.204345703125 1167.2879638671875 1167.314208984375 1167.3743896484375 1167.47998046875 1167.7958984375 1167.6304931640625 1167.2626953125 1167.31201171875 1167.4615478515625 1167.548095703125 1167.5079345703125 1166.8267822265625 1167.15625 1167.3389892578125 1167.3704833984375 1167.5255126953125 1167.6190185546875 1167.7689208984375 1167.7315673828125 1167.7991943359375 1168.046142578125 1168.5899658203125 1168.7867431640625 1168.5675048828125 1167.9921875 1167.994873046875 1167.9759521484375 1167.9298095703125 1168.095947265625 1168.174560546875 1168.0096435546875 1167.9376220703125 1167.85302734375 1167.63671875 1167.4173583984375 1167.44091796875 1167.3665771484375 1167.0238037109375 1167.12158203125 1166.9605712890625 1166.58447265625 1166.145751953125 1165.9166259765625 1165.880615234375 1165.9014892578125 1165.89599609375 1165.9166259765625 1165.9466552734375 1165.93310546875
1166.33740234375 1166.4259033203125 1166.7177734375 1166.36181640625 1166.390625 1166.838134765625 1166.69677734375 1166.4786376953125 1166.61279296875 1166.6444091796875 1166.8466796875 1167.5975341796875 1167.5853271484375 1167.4552001953125 1167.3695068359375 1167.252685546875 1167.1634521484375 1167.1221923828125 1167.1695556640625 1167.4654541015625 1167.4970703125 1167.47314453125 1167.4378662109375 1167.3758544921875 1167.1370849609375 1166.4720458984375 1166.400146484375 1166.36865234375 1166.5303955078125 1166.8331298828125 1166.5059814453125 1166.4744873046875 1166.4444580078125 1166.343017578125 1166.5234375 1166.662353515625 1166.709228515625 1166.619384765625 1166.635986328125 1166.57080078125 1166.5484619140625 1166.5284423828125 1166.4998779296875 1166.4239501953125 1166.3809814453125 1166.376220703125 1166.3966064453125 1166.4637451171875 1166.5374755859375 1166.4041748046875 1166.356201171875 1166.38232421875 1166.3824462890625 1166.48583984375 1166.4906005859375 1166.5040283203125 1166.98388671875 1166.6619873046875 1166.7037353515625 1166.5755615234375 1166.575439453125 1166.6768798828125 1166.7418212890625 1166.7655029296875 1166.7996826171875 1166.994384765625 1166.98974609375 1166.889404296875 1166.915771484375 1166.770263671875 1166.878173828125 1166.8642578125 1166.7994384765625 1167.104248046875 1167.2276611328125 1166.999267578125 1166.78515625 1166.8800048828125 1167.2572021484375 1167.0904541015625 1167.1043701171875 1167.117919921875 1167.565673828125 1167.57177734375 1167.1500244140625 1167.0635986328125 1167.04931640625 1167.1510009765625 1167.0426025390625 1166.911376953125 1166.9117431640625 1166.882080078125 1166.802001953125 1166.6900634765625 1166.640380859375 1166.65966796875 1166.6260986328125 1166.6787109375 1166.7314453125 1166.5947265625 1166.6458740234375 1166.71142578125 1166.691650390625 1166.492919921875 1166.6903076171875 1166.580322265625 1166.6885986328125 1166.778564453125 1166.754638671875 1166.9658203125 1167.0240478515625 1166.997314453125 1167.116455078125 1167.0179443359375 1167.160888671875 1167.2064208984375 1167.1923828125 1167.2410888671875 1167.3795166015625 1167.49365234375 1167.5360107421875 1167.66748046875 1167.642822265625 1167.3154296875 1167.3157958984375 1167.5863037109375 1167.65576171875 1167.6541748046875 1166.7303466796875 1167.2838134765625 1167.36669921875 1167.4833984375 1167.817626953125 1167.8662109375 1167.8922119140625 1167.8585205078125 1167.82958984375 1167.991455078125 1167.8448486328125 1167.727783203125 1167.7440185546875 1167.646240234375 1167.565673828125 1167.483642578125 1167.50634765625 1167.5250244140625 1167.46728515625 1167.328857421875 1167.165771484375 1166.783447265625 1166.2706298828125 1166.1529541015625 1166.174072265625 1166.041748046875 1165.8865966796875 1165.9010009765625 1165.89404296875 1165.896728515625 1165.898193359375 1165.9007568359375 1165.900390625 1165.912353515625 1165.9117431640625 1165.9229736328125 1165.91748046875 1165.9248046875
1166.296875 1166.4801025390625 1166.614990234375 1166.3643798828125 1166.3590087890625 1166.5633544921875 1166.5699462890625 1166.6109619140625 1166.60009765625 1166.520751953125 1166.948486328125 1167.5079345703125 1167.473388671875 1167.3731689453125 1167.39794921875 1167.319580078125 1167.1988525390625 1167.1082763671875 1167.1407470703125 1167.3656005859375 1167.41064453125 1167.3465576171875 1167.325927734375 1167.355224609375 1167.3006591796875 1166.7115478515625 1166.4976806640625 1166.4320068359375 1166.3795166015625 1166.443115234375 1166.4498291015625 1166.4407958984375 1166.39208984375 1166.3399658203125 1166.3751220703125 1166.52734375 1166.551513671875 1166.5843505859375 1166.6845703125 1166.54052734375 1166.494873046875 1166.49267578125 1166.5218505859375 1166.3951416015625 1166.4324951171875 1166.3865966796875 1166.36962890625 1166.4737548828125 1166.5115966796875 1166.4473876953125 1166.5640869140625 1166.5601806640625 1166.365966796875 1166.3873291015625 1166.356201171875 1166.4530029296875 1167.2049560546875 1167.4398193359375 1167.4754638671875 1166.7445068359375 1166.7410888671875 1166.5865478515625 1166.71044921875 1166.8031005859375 1166.8465576171875 1166.879638671875 1166.884521484375 1166.6939697265625 1166.805419921875 1166.7822265625 1166.849853515625 1166.744384765625 1166.72607421875 1167.20654296875 1167.44482421875 1167.0545654296875 1166.771728515625 1167.022216796875 1167.0267333984375 1166.989990234375 1166.987548828125 1167.0474853515625 1167.414794921875 1167.555419921875 1167.0537109375 1166.998291015625 1167.016845703125 1167.1668701171875 1167.15234375 1167.042724609375 1166.9825439453125 1166.82373046875 1166.9630126953125 1166.6790771484375 1166.6756591796875 1166.6590576171875 1166.6116943359375 1166.7061767578125 1166.7064208984375 1166.837158203125 1166.9072265625 1166.70361328125 1166.751708984375 1166.7730712890625 1166.6864013671875 1166.6685791015625 1166.78466796875 1166.83544921875 1166.8087158203125 1166.822509765625 1166.9580078125 1167.010009765625 1167.05517578125 1167.0621337890625 1167.2572021484375 1167.1790771484375 1167.1468505859375 1167.149169921875 1167.2890625 1167.440673828125 1167.4501953125 1167.4847412109375 1167.4696044921875 1167.3470458984375 1167.28466796875 1167.4730224609375 1167.666259765625 1167.6878662109375 1166.403564453125 1167.212158203125 1167.316650390625 1167.48779296875 1167.8106689453125 1167.8270263671875 1167.8656005859375 1167.8153076171875 1167.857177734375 1167.8857421875 1167.66845703125 1167.48095703125 1167.34619140625 1167.2589111328125 1167.2239990234375 1167.1846923828125 1166.802001953125 1166.227783203125 1166.0657958984375 1165.9771728515625 1166.034423828125 1166.0389404296875 1166.0921630859375 1166.0023193359375 1165.94482421875 1165.90966796875 1165.9093017578125 1165.9053955078125 1165.8983154296875 1165.8873291015625 1165.8895263671875 1165.900634765625 1165.9090576171875 1165.90625 1165.9134521484375 1165.917724609375 1165.9205322265625 1165.925048828125
1166.626220703125 1166.6947021484375 1166.5133056640625 1166.361328125 1166.4041748046875 1166.470947265625 1166.50341796875 1166.44482421875 1166.3895263671875 1166.4783935546875 1166.904052734375 1167.2137451171875 1167.374755859375 1167.3883056640625 1167.366455078125 1167.337890625 1167.240478515625 1167.06591796875 1167.0093994140625 1167.1689453125 1167.1551513671875 1167.0970458984375 1167.064697265625 1167.007080078125 1166.9542236328125 1166.84326171875 1166.791259765625 1166.4818115234375 1166.38916015625 1166.341552734375 1166.3592529296875 1166.4742431640625 1166.41552734375 1166.3553466796875 1166.366455078125 1166.4189453125 1166.5631103515625 1166.621826171875 1166.784423828125 1166.6300048828125 1166.4542236328125 1166.4710693359375 1166.48974609375 1166.4278564453125 1166.4228515625 1166.401123046875 1166.37841796875 1166.5076904296875 1166.4671630859375 1166.3717041015625 1166.522216796875 1166.5531005859375 1166.3846435546875 1166.3721923828125 1166.4005126953125 1166.4189453125 1166.5557861328125 1167.18310546875 1167.577880859375 1167.5694580078125 1167.06103515625 1166.54296875 1166.576171875 1166.6851806640625 1166.9122314453125 1166.703125 1166.7144775390625 1166.6431884765625 1166.7554931640625 1166.7115478515625 1166.7496337890625 1166.615478515625 1166.5986328125 1167.008544921875 1167.1116943359375 1166.8460693359375 1166.7081298828125 1166.8197021484375 1166.772705078125 1166.79345703125 1166.7181396484375 1166.98046875 1167.0399169921875 1167.278076171875 1167.232666015625 1167.1602783203125 1167.1441650390625 1167.1314697265625 1167.0810546875 1167.0787353515625 1166.9913330078125 1166.9071044921875 1166.8223876953125 1166.723388671875 1166.6802978515625 1166.650634765625 1166.642578125 1166.666748046875 1166.7218017578125 1166.9970703125 1166.9591064453125 1166.8895263671875 1166.837158203125 1166.9580078125 1166.9224853515625 1166.63623046875 1166.862548828125 1166.8419189453125 1166.8753662109375 1166.8280029296875 1166.7635498046875 1167.287353515625 1167.12158203125 1167.076904296875 1167.10693359375 1167.16943359375 1167.1192626953125 1167.1075439453125 1167.6705322265625 1167.309814453125 1167.435791015625 1167.4254150390625 1167.26708984375 1167.6070556640625 1167.475341796875 1167.4925537109375 1167.5654296875 1167.5732421875 1166.501220703125 1167.191162109375 1167.21435546875 1167.3250732421875 1167.7799072265625 1167.7427978515625 1167.7059326171875 1167.7474365234375 1167.56982421875 1167.433349609375 1167.44873046875 1166.8978271484375 1166.3404541015625 1165.9085693359375 1165.8861083984375 1165.8529052734375 1165.8624267578125 1165.8634033203125 1165.8896484375 1165.8814697265625 1165.89013671875 1165.8988037109375 1165.8804931640625 1165.88330078125 1165.8804931640625 1165.9061279296875 1165.8807373046875 1165.8814697265625 1165.907470703125 1165.8946533203125 1165.90283203125 1165.917724609375 1165.90966796875 1165.900146484375 1165.901123046875 1165.9384765625 1165.9256591796875 1165.9150390625
1167.087158203125 1167.13232421875 1166.60107421875 1166.397705078125 1166.478271484375 1166.466796875 1166.440673828125 1166.430908203125 1166.451904296875 1166.5706787109375 1166.8958740234375 1167.147216796875 1167.296142578125 1167.378173828125 1167.3367919921875 1167.3135986328125 1167.233642578125 1167.0155029296875 1167.0185546875 1167.0472412109375 1167.069091796875 1167.0662841796875 1167.0179443359375 1167.0604248046875 1166.9691162109375 1166.8807373046875 1166.806884765625 1166.3868408203125 1166.3189697265625 1166.3795166015625 1166.368896484375 1166.3912353515625 1166.4267578125 1166.350830078125 1166.2957763671875 1166.3717041015625 1166.529296875 1166.629150390625 1166.8192138671875 1166.6573486328125 1166.35595703125 1166.47216796875 1166.453857421875 1166.4298095703125 1166.3994140625 1166.3895263671875 1166.3988037109375 1166.3861083984375 1166.35791015625 1166.34765625 1166.4171142578125 1166.42333984375 1166.4176025390625 1166.33837890625 1166.4447021484375 1166.5556640625 1166.6085205078125 1166.50732421875 1166.7969970703125 1167.2230224609375 1166.9886474609375 1166.5960693359375 1166.646728515625 1166.66796875 1166.6995849609375 1166.7264404296875 1166.6644287109375 1166.6231689453125 1166.6837158203125 1166.789794921875 1166.643310546875 1166.5745849609375 1166.674072265625 1166.8463134765625 1166.92578125 1167.0628662109375 1166.73388671875 1166.8475341796875 1166.718505859375 1166.6435546875 1166.7581787109375 1166.916259765625 1167.012939453125 1167.3525390625 1167.276123046875 1167.2042236328125 1167.1353759765625 1167.1490478515625 1167.1181640625 1166.930419921875 1166.8922119140625 1166.8914794921875 1166.757080078125 1166.7066650390625 1166.74755859375 1166.705810546875 1166.6766357421875 1166.6416015625 1166.7110595703125 1166.8494873046875 1166.909912109375 1167.0350341796875 1166.9547119140625 1166.9615478515625 1166.9307861328125 1166.8016357421875 1166.5689697265625 1166.6435546875 1166.641845703125 1166.7694091796875 1166.7818603515625 1167.2698974609375 1167.3170166015625 1167.125 1167.1611328125 1167.278076171875 1167.7147216796875 1168.645263671875 1168.56201171875 1167.6204833984375 1167.452392578125 1167.66015625 1167.5927734375 1167.6851806640625 1167.64111328125 1167.499267578125 1167.470458984375 1167.568359375 1166.59814453125 1167.161376953125 1167.1824951171875 1167.2481689453125 1167.68798828125 1167.343017578125 1167.227783203125 1167.1917724609375 1167.189453125 1166.5791015625 1166.1656494140625 1166.0860595703125 1166.247314453125 1166.0400390625 1165.82470703125 1165.8572998046875 1165.89892578125 1165.94580078125 1166.001953125 1166.0306396484375 1166.202392578125 1166.3436279296875 1165.8798828125 1165.8966064453125 1165.8929443359375 1165.908447265625 1165.896728515625 1165.8890380859375 1165.94384765625 1165.9627685546875 1165.92529296875 1165.8907470703125 1165.8828125 1165.8779296875 1165.9034423828125 1165.9130859375 1165.91015625 1165.8984375
